98 99 106 121 133 144 139 133 136 118 104 103 104 99 93 93 98 108 122 115 118 113 109 93 83 76 61 46 40 41 51 63 82 98 115 122 127 150 151 119 103 94 90 87 91 91 106 114 125 149 160 179 186 170 155 141 137 123 111 119 125 131 125 124 132 121 110 113 111 113 122 132 134 133 134 140 155 164 165 176 184 196 195 189 183 186 189 192 191 186 188 194 191 189 177 177 174 181 194 205 211 207 199 200 202 200 208 207 207 208 213 215 212 205 203 198 195 194 189 182 173 167 162 156 152 151 141 136 138 138 136 126 122 125 132 133 137 133 126 116 112 103 90 83 71 66 68 66 68 69 67 74 87 93 89 86 86 78 76 73 75 72 72 67 53 40 31 28 29 34 33 35 38 49 52 53 49 43 32 26 25 23 14 11 16 19 25 31 41 47 57 61 58 57 61 66 61 60 52 47 41 35 33 29 23 18 16 13 13 13 13 13 14 15 16 20 24 28 31 36 34 31 31 39 48 54 60 66 81 81 82 78 68 71 65 66 69 64 61 57 56 63 69 71 77 68 71 73 83 99 117 121 134 138 137 140 144
88 90 111 127 141 153 153 144 139 121 103 98 101 101 101 110 115 123 140 139 137 124 109 90 81 71 59 49 41 45 55 70 83 99 119 130 145 159 166 146 132 129 122 120 123 119 117 128 142 162 171 184 188 179 162 141 125 116 109 124 129 143 142 129 130 131 127 122 116 118 125 132 133 129 128 131 141 147 150 158 169 181 189 189 189 193 200 208 208 201 200 201 190 183 174 171 171 178 190 198 206 204 194 193 196 194 198 199 203 204 210 213 206 197 198 193 190 185 179 169 162 158 156 150 147 147 141 136 134 134 129 123 122 128 136 138 136 131 123 118 108 91 82 79 69 66 68 70 72 72 75 80 93 98 95 91 87 80 76 78 80 77 75 67 50 35 27 23 26 34 33 34 34 43 48 48 45 42 38 31 26 22 17 15 19 23 26 30 32 35 45 52 49 48 53 55 58 56 50 41 34 30 28 25 20 17 15 12 12 12 14 13 15 16 16 18 21 26 28 32 32 29 32 39 47 58 68 84 97 94 96 91 77 82 81 74 69 71 72 67 63 65 70 76 81 75 76 90 98 111 123 133 143 142 141 147 151
75 93 117 130 150 160 167 165 151 129 111 106 113 119 123 126 130 132 150 158 157 132 114 101 86 74 60 47 39 44 51 67 80 104 128 140 155 159 166 170 174 172 163 161 150 141 142 149 157 170 172 179 182 175 151 140 126 114 107 117 124 141 141 138 126 125 135 129 126 125 130 135 135 124 117 123 133 138 143 142 157 168 173 176 184 198 208 212 212 204 198 198 184 179 179 172 171 176 187 195 200 201 199 193 190 188 185 191 200 198 200 202 196 195 195 187 182 174 166 160 158 154 153 149 150 146 141 137 134 134 129 125 124 127 132 136 136 134 126 119 103 94 87 78 69 66 65 70 73 76 78 78 86 97 100 99 88 82 79 84 80 71 64 59 46 33 28 24 26 32 33 36 37 44 44 43 40 38 39 31 27 22 20 17 20 22 23 24 27 31 41 42 38 35 43 45 47 44 43 38 32 28 26 24 20 16 14 12 11 11 12 13 15 16 17 17 19 24 27 28 29 28 33 39 48 57 65 82 101 105 105 106 90 84 88 93 87 92 84 78 73 78 78 81 83 89 99 111 118 131 132 140 138 135 137 141 143
74 93 103 119 135 148 158 164 156 134 121 121 128 132 148 150 150 150 158 162 163 144 126 112 92 81 63 46 40 39 48 64 83 108 128 138 137 161 177 194 189 180 164 161 161 161 158 158 163 163 168 186 191 178 154 136 128 122 118 116 115 127 134 135 130 127 131 129 125 130 133 144 141 132 125 131 138 140 138 135 145 153 160 169 176 190 205 207 206 206 199 192 187 181 182 179 176 175 188 187 185 196 199 192 197 190 184 185 194 196 192 187 189 194 190 186 179 170 162 160 159 155 152 153 152 149 143 140 136 135 129 126 125 129 129 135 136 131 126 115 108 100 96 85 73 70 70 72 74 74 77 82 90 104 103 102 89 92 96 98 88 74 63 58 46 33 28 28 27 30 29 32 36 40 42 44 45 40 38 33 27 23 21 16 17 17 16 15 18 25 33 34 31 28 34 42 42 39 40 36 31 27 25 23 19 16 14 12 11 10 11 13 14 15 15 18 18 22 25 26 31 35 40 51 55 56 66 85 93 104 111 110 95 83 89 100 101 102 100 91 87 89 85 84 90 94 108 121 134 147 145 146 138 130 135 135 138
87 96 98 105 123 136 144 148 143 133 123 131 137 148 167 176 175 173 162 160 162 151 130 111 89 81 70 50 37 35 44 57 81 105 126 134 135 161 176 186 179 176 155 143 146 152 163 167 159 164 173 186 182 167 151 130 118 116 115 112 117 127 132 132 132 135 141 136 124 131 138 151 149 141 139 145 149 140 137 144 150 149 155 162 167 179 195 203 203 204 202 199 192 188 194 190 180 183 189 186 182 193 198 201 205 199 185 176 187 194 188 185 187 189 186 180 172 165 162 158 159 158 153 153 151 150 147 142 137 135 130 127 126 131 131 131 132 129 128 118 115 109 107 95 79 76 79 76 77 80 82 88 94 103 111 108 99 101 105 101 91 85 67 52 42 31 26 28 28 25 24 27 28 31 39 46 47 46 41 34 27 22 17 14 13 12 11 10 13 19 26 28 29 28 35 42 42 39 37 32 30 27 25 21 17 15 13 12 10 10 11 13 14 14 15 16 17 21 24 28 34 40 48 57 57 58 70 88 99 110 111 110 103 97 98 103 101 102 108 105 102 103 94 89 88 89 104 127 146 164 165 162 148 136 134 138 140
88 91 87 88 108 122 129 135 131 139 143 148 146 156 170 177 174 174 170 164 159 145 123 110 94 86 70 57 42 40 53 66 85 97 112 125 131 151 169 175 177 170 152 152 155 156 166 179 162 167 172 172 160 142 130 109 91 88 93 90 98 113 120 122 131 148 153 149 138 137 146 155 151 144 146 147 148 152 152 157 166 157 154 160 164 182 193 198 196 197 200 199 193 196 197 189 186 193 192 187 183 193 195 206 206 200 188 183 182 188 186 185 186 185 183 177 166 159 157 157 159 158 155 154 147 144 144 142 138 136 128 123 122 127 131 136 136 136 130 119 121 119 115 103 91 86 83 80 83 85 89 95 96 93 104 116 116 113 111 105 109 102 70 48 37 30 29 28 24 24 26 26 27 32 36 44 42 39 37 34 25 22 17 12 9 8 10 11 13 16 20 23 29 28 32 36 35 31 30 28 27 24 24 20 17 15 14 12 10 11 11 12 13 14 14 14 16 23 30 34 38 45 51 53 52 55 70 82 98 109 117 112 107 100 96 104 102 103 110 112 112 110 102 99 99 97 111 134 157 174 174 168 155 148 146 146 147
87 82 78 88 101 112 120 132 136 151 159 151 150 152 169 175 180 182 179 171 163 143 128 115 105 96 82 65 56 46 49 68 83 98 111 132 139 144 151 154 161 161 156 161 156 160 164 172 167 167 171 166 147 127 112 100 72 70 73 66 78 95 108 116 135 159 167 165 149 137 146 151 152 143 146 145 153 161 159 162 166 167 164 164 172 183 186 187 182 188 198 198 201 198 194 197 193 192 188 179 178 185 187 200 204 201 196 189 182 177 177 182 183 182 182 176 162 156 155 160 160 161 159 156 146 144 146 144 139 140 134 126 126 128 134 138 137 136 132 127 127 127 118 108 99 87 87 88 86 91 102 101 101 97 103 114 124 110 101 103 110 102 75 49 33 29 30 27 23 22 25 25 27 34 34 35 31 31 38 34 29 22 20 16 10 8 9 11 14 16 19 22 27 29 30 31 31 27 25 26 24 22 21 19 17 15 14 13 11 11 12 13 14 13 13 15 18 24 33 39 44 50 53 51 49 53 64 76 88 108 114 112 107 99 104 108 108 114 114 119 113 116 116 107 108 115 125 149 171 181 180 175 162 157 154 153 157
77 78 86 92 95 101 109 117 133 157 168 159 154 161 169 175 183 185 175 170 164 152 134 122 120 112 98 72 62 55 48 57 65 83 109 133 141 138 144 152 161 163 162 177 168 167 160 158 150 155 155 143 125 112 106 94 72 68 65 62 71 84 92 114 137 164 177 174 162 148 151 152 152 152 153 152 165 172 171 173 168 167 163 167 177 181 181 178 177 187 206 210 214 211 206 205 195 186 173 165 167 171 181 192 196 196 193 187 179 175 178 178 177 184 182 176 170 165 161 165 167 169 164 159 157 154 152 146 142 140 139 133 131 138 144 148 145 142 141 138 137 136 125 111 102 94 91 93 95 104 112 111 106 106 109 117 121 108 102 101 96 97 83 60 40 28 26 27 27 23 24 26 28 30 29 25 22 24 30 29 26 22 20 15 10 8 9 11 14 16 17 18 23 27 27 27 28 26 23 21 18 18 20 18 15 14 13 13 12 12 14 15 15 13 14 18 23 25 31 39 44 49 58 58 54 49 57 73 80 96 103 104 107 101 106 109 115 124 124 124 118 120 116 109 108 121 139 164 181 195 193 191 182 175 168 162 170
76 85 90 77 73 82 93 111 133 155 158 154 157 159 153 162 174 179 171 169 165 151 128 116 114 109 100 78 66 52 42 48 58 66 97 132 150 152 157 170 174 178 169 172 171 165 150 145 140 134 132 122 107 100 97 87 76 67 59 64 64 84 92 103 117 146 166 162 156 151 152 152 153 169 173 175 181 181 177 172 168 166 160 166 179 183 187 180 186 194 208 216 219 216 215 206 198 190 178 169 175 173 178 182 189 188 183 181 179 179 182 186 187 187 179 179 173 167 161 165 172 177 177 172 167 160 155 152 152 146 141 142 142 148 152 154 152 145 142 141 141 135 126 111 104 105 102 105 107 115 112 110 106 107 102 106 109 102 99 100 97 92 77 62 47 29 24 23 23 23 22 25 28 24 21 18 17 19 22 24 23 20 20 16 13 9 8 10 12 14 15 16 21 26 27 26 25 24 20 19 15 15 17 18 17 15 13 13 12 13 14 17 17 17 17 20 25 28 35 44 47 53 58 56 51 46 59 70 80 94 107 104 105 105 111 115 126 136 133 136 135 124 114 112 113 126 154 175 183 195 200 201 192 185 181 179 180
75 83 83 64 57 74 88 107 130 145 144 134 139 140 132 145 157 161 158 156 162 149 131 114 105 96 96 83 66 58 49 50 56 67 98 130 159 163 173 181 185 180 176 168 169 153 137 138 144 135 124 106 98 88 93 89 76 73 75 77 74 78 92 93 100 124 155 152 150 155 149 155 166 180 184 187 191 183 175 171 170 159 159 163 177 187 196 192 195 203 214 221 222 213 210 212 212 205 198 182 179 177 181 183 179 180 180 183 177 179 182 194 195 190 185 181 172 166 163 167 176 180 182 180 174 167 162 159 157 154 150 147 149 155 160 158 151 146 140 143 142 135 124 112 113 117 117 118 123 125 118 116 110 103 97 101 99 104 106 103 104 92 82 68 52 38 30 22 20 19 19 21 24 21 20 18 16 18 23 23 21 21 19 16 14 10 9 9 12 13 13 14 20 23 24 24 20 19 16 15 14 15 16 17 17 15 14 14 14 14 15 17 20 19 19 23 28 34 40 44 52 58 60 55 51 47 54 69 81 94 112 113 114 116 121 129 140 145 147 145 145 138 127 123 117 129 151 169 183 189 197 197 192 188 182 183 182
79 72 66 59 63 72 83 102 123 139 141 125 121 129 124 125 134 142 150 146 148 139 128 114 110 98 88 77 65 59 60 60 61 70 93 127 161 170 182 191 187 173 169 156 151 142 136 133 134 115 101 99 91 79 81 83 81 80 77 83 84 78 85 76 86 119 140 139 148 157 152 161 176 186 192 187 184 179 176 169 171 161 155 167 185 196 205 204 211 216 224 227 226 220 218 222 216 208 204 191 178 174 180 186 184 177 173 180 180 180 183 194 194 192 189 183 175 171 170 173 179 185 186 183 178 173 171 168 161 155 156 152 155 159 163 164 158 151 145 145 141 135 128 121 119 126 130 130 136 142 137 130 118 108 105 109 106 103 106 103 102 86 78 67 51 43 32 24 24 21 20 20 22 21 19 19 18 20 24 23 18 19 19 17 16 10 9 10 14 14 13 15 18 19 20 21 18 18 16 16 15 14 16 16 16 13 14 16 16 16 17 21 25 25 24 27 30 36 41 45 54 59 65 59 52 48 54 64 79 96 113 123 132 136 141 147 155 162 159 160 165 161 151 141 136 143 155 163 179 189 200 203 199 194 189 194 184
71 63 51 58 59 61 78 97 112 136 142 122 112 116 118 122 124 128 132 137 131 132 130 125 109 104 91 80 76 62 59 57 58 77 88 115 142 163 174 195 185 167 174 162 142 145 132 123 127 106 74 72 75 71 73 79 97 89 80 92 89 77 74 70 88 112 135 141 149 157 157 163 179 184 187 177 177 175 178 171 162 162 161 173 182 190 198 205 213 215 224 231 229 227 224 225 214 201 197 182 171 169 177 186 178 174 169 181 193 191 193 195 193 191 187 183 179 178 181 184 185 188 187 184 179 175 175 170 162 159 158 157 159 164 166 170 170 161 155 151 148 143 134 128 128 138 142 145 149 154 155 145 137 122 121 120 116 104 99 95 91 81 79 63 46 43 36 29 27 23 21 20 20 20 21 20 18 20 20 19 18 21 21 17 14 12 11 13 16 15 14 14 13 16 19 19 18 18 16 16 18 17 17 18 16 14 14 16 18 19 21 27 29 31 32 37 37 40 44 44 52 60 63 59 51 49 58 69 75 94 105 123 133 141 149 159 161 178 177 178 177 172 169 156 155 162 170 175 184 189 202 208 210 203 201 196 187
61 55 47 48 55 57 72 89 120 144 145 127 114 117 118 124 118 114 114 121 124 127 134 124 103 97 89 90 80 66 65 60 61 78 95 110 138 153 166 176 177 172 171 168 154 142 123 115 117 106 78 64 60 64 66 78 89 87 86 99 86 67 61 71 88 112 138 146 151 160 161 166 183 187 183 177 173 173 175 169 164 164 169 178 187 187 190 199 205 209 223 231 231 233 229 221 215 203 188 178 167 169 176 181 179 176 178 185 194 196 198 193 187 187 186 185 184 187 187 188 187 189 188 183 179 178 176 170 165 163 162 160 161 165 167 174 178 171 160 155 152 150 144 138 136 141 154 161 159 161 158 155 150 143 137 124 120 112 100 97 90 85 79 61 51 47 40 31 30 26 22 21 20 23 23 21 21 21 20 20 20 24 24 18 14 14 13 15 16 16 16 14 14 15 17 18 18 18 18 16 18 17 18 18 17 17 16 18 22 24 26 30 35 40 43 41 41 41 45 51 57 63 66 57 49 54 68 73 80 93 107 122 137 150 158 169 172 179 181 186 187 176 173 171 176 180 183 184 183 188 201 212 213 209 207 192 180
51 50 56 54 47 52 71 96 119 129 130 128 127 131 128 132 137 131 120 118 118 122 128 115 100 97 93 91 83 78 71 66 75 81 102 121 144 154 160 159 170 178 172 172 162 144 124 110 111 108 89 71 53 55 56 63 65 75 76 86 95 80 70 69 83 113 145 158 158 159 162 178 187 185 180 177 171 173 174 172 165 161 165 178 190 190 192 202 206 210 222 228 226 224 218 207 205 203 191 180 173 176 187 188 183 181 186 189 193 194 190 185 181 178 181 185 186 189 188 189 187 187 186 182 179 179 175 167 165 162 161 159 162 166 168 174 179 175 167 156 149 151 151 149 145 142 152 165 165 162 156 155 158 157 143 132 125 111 97 94 92 85 72 62 52 45 45 38 35 31 25 22 22 25 22 19 20 21 20 20 24 27 25 21 17 16 13 15 18 18 19 18 18 18 21 20 19 18 18 17 18 18 17 18 18 18 19 22 27 30 33 34 40 47 54 47 39 37 45 52 56 65 67 60 58 63 75 86 98 109 119 134 151 165 171 174 173 173 183 188 188 180 175 173 184 187 185 182 178 184 191 201 203 203 204 188 172
49 51 58 56 49 53 68 89 101 117 126 140 142 150 148 154 160 143 126 117 118 126 130 123 114 97 92 92 89 84 71 80 85 90 115 132 150 170 176 174 175 182 179 183 182 169 152 133 127 124 98 69 50 53 51 50 47 57 67 71 83 85 72 75 89 116 142 150 154 158 170 179 180 181 181 180 175 175 170 168 164 162 166 180 184 183 187 197 202 209 217 219 219 214 203 199 200 194 194 189 187 183 192 194 189 188 193 194 191 191 186 180 177 176 178 184 186 185 186 188 188 186 185 181 178 175 171 163 160 161 164 161 163 164 163 166 173 173 169 158 155 156 160 158 155 148 154 164 167 163 156 152 155 163 151 138 121 110 98 90 92 83 71 60 55 46 49 49 42 36 32 28 24 21 19 18 18 20 21 22 25 29 28 21 20 17 14 14 17 18 19 20 21 22 24 24 20 18 20 18 19 20 19 20 20 21 24 25 31 36 37 38 42 52 61 56 45 40 46 54 56 65 75 71 73 78 85 96 114 125 135 146 157 163 172 169 164 164 170 178 179 180 181 178 184 187 185 180 177 172 175 185 190 194 198 182 161
55 57 64 58 57 60 74 80 88 105 118 131 136 152 161 169 163 158 144 123 125 131 136 133 126 108 91 96 93 87 87 96 102 103 121 139 164 190 196 192 189 187 185 189 190 182 180 170 148 129 103 72 55 53 54 42 36 40 54 62 75 78 71 81 97 120 139 152 160 162 174 175 172 172 176 181 173 166 163 167 170 173 177 180 183 183 184 189 200 205 209 214 211 202 194 191 193 190 195 198 198 195 198 198 195 199 197 195 192 189 186 178 175 178 179 183 185 183 183 186 188 186 184 181 178 175 170 159 156 158 162 163 166 161 159 161 165 169 168 166 168 167 166 164 163 163 166 172 176 170 165 157 159 160 151 139 124 108 99 89 85 74 66 65 57 51 57 56 46 40 34 28 23 20 20 18 17 18 19 20 25 28 29 26 21 16 14 13 15 18 21 24 23 26 26 25 22 22 21 20 22 24 22 22 24 25 25 27 35 41 45 46 48 54 64 63 55 49 49 54 62 72 83 84 83 87 95 106 119 131 150 159 161 165 168 163 154 153 168 173 175 187 189 186 188 186 182 174 166 164 165 171 174 183 185 180 162
63 75 93 85 86 85 97 100 98 105 118 127 133 145 157 161 154 163 150 130 131 142 143 139 129 116 99 98 93 98 105 110 108 117 135 144 164 180 191 190 195 187 183 183 184 179 183 183 157 142 122 88 65 49 43 38 37 36 51 59 67 70 70 74 96 129 136 151 156 154 164 168 166 160 164 172 170 170 169 169 173 178 180 178 186 191 193 195 196 199 205 207 203 198 194 193 189 187 189 193 200 202 201 201 205 205 200 198 194 187 182 175 174 178 180 186 186 185 184 186 188 185 182 181 179 175 170 164 159 159 164 168 170 164 162 160 163 168 171 175 181 175 167 163 167 173 173 174 177 173 180 175 168 158 150 137 129 116 112 101 89 80 76 69 59 55 60 55 46 41 36 30 25 23 22 21 19 18 21 23 27 28 29 28 21 17 16 14 15 19 24 25 23 27 27 26 24 23 19 19 22 25 26 26 29 27 25 29 37 43 47 49 53 63 73 72 62 57 52 52 64 71 80 85 86 88 99 118 130 142 150 157 159 163 167 162 161 159 169 176 178 185 187 189 189 187 182 169 155 152 151 153 159 172 172 169 162
85 95 117 118 123 127 134 123 108 99 111 121 130 133 145 146 152 151 152 145 140 149 151 152 141 125 102 93 92 97 104 115 120 127 132 136 148 171 183 184 189 186 184 186 180 183 189 180 169 147 122 88 60 41 36 39 41 45 60 67 70 76 68 70 94 123 123 134 140 148 149 156 157 152 151 158 163 166 169 168 174 180 178 178 183 191 195 198 200 198 202 205 201 200 198 191 189 187 180 184 200 203 204 202 204 202 206 199 190 184 180 173 174 177 181 185 188 187 186 186 186 185 182 183 181 176 173 167 163 163 166 175 176 171 165 166 171 170 171 180 182 175 170 165 172 171 174 181 173 175 185 179 172 163 159 151 136 122 115 104 87 82 79 75 63 58 59 53 44 41 37 32 26 23 23 24 20 21 21 25 28 29 29 24 20 17 17 15 16 20 23 22 22 26 29 25 25 24 21 21 24 31 33 33 34 30 27 29 35 45 49 51 57 65 75 77 65 63 57 58 66 74 78 87 91 92 104 118 135 148 153 153 158 171 173 174 172 171 181 183 188 191 189 191 189 188 179 162 149 143 141 140 151 161 161 161 159
102 107 127 140 145 158 160 143 122 118 127 129 132 130 138 134 145 148 141 135 139 147 152 155 141 135 124 107 100 104 106 110 121 128 131 142 160 174 175 180 184 183 184 192 198 201 190 177 163 139 110 85 61 45 36 40 51 59 68 74 85 80 65 80 103 114 114 127 134 143 151 153 150 145 146 152 161 161 160 159 167 173 173 172 175 187 194 197 200 199 205 204 204 200 195 189 188 189 183 182 193 202 199 195 195 196 198 197 192 186 176 169 172 175 178 182 188 187 185 183 186 184 182 183 181 177 172 166 166 166 168 177 182 180 175 172 177 179 178 184 183 177 169 167 170 173 176 176 168 176 185 182 179 172 171 166 152 132 109 95 88 86 81 74 60 54 56 55 48 42 39 38 32 26 24 25 23 24 23 26 29 28 24 22 19 16 16 15 16 18 21 21 20 23 28 27 27 22 19 21 26 35 39 39 36 35 34 34 34 43 47 53 60 67 75 79 69 60 57 62 75 84 88 96 104 107 109 119 132 144 149 150 163 178 180 184 183 182 190 191 189 189 191 188 187 186 170 159 146 134 135 136 142 154 158 152 148
116 129 146 165 165 177 170 159 145 151 156 151 154 151 160 152 145 148 144 132 144 150 147 152 151 150 138 120 108 116 124 120 130 136 149 161 186 191 185 196 200 199 202 215 220 220 203 188 169 137 100 77 55 46 36 34 48 59 61 66 78 77 73 78 100 114 114 129 133 132 144 144 138 134 136 139 147 146 140 138 150 160 167 170 174 182 192 199 197 194 195 197 202 195 185 177 177 178 178 181 181 190 187 183 184 187 183 182 181 179 170 161 169 175 179 184 188 184 180 178 185 186 184 183 184 180 170 162 166 165 167 174 179 177 173 176 176 183 186 189 190 183 168 166 165 172 168 166 162 173 179 179 172 165 161 166 158 140 120 106 97 92 81 65 55 54 50 54 51 43 43 39 35 27 24 23 22 23 24 25 27 25 23 22 19 17 17 17 18 19 23 24 23 24 26 26 27 24 23 26 31 40 43 45 43 39 37 35 34 42 49 57 66 70 74 76 66 54 57 62 81 87 95 105 123 124 117 117 126 140 145 148 163 173 174 183 187 185 189 192 187 189 192 184 182 184 172 161 147 143 142 141 144 151 156 155 149
131 155 164 175 172 183 185 180 171 172 175 167 172 176 177 168 154 160 158 150 156 153 159 158 162 160 152 134 123 131 137 136 140 149 169 185 198 200 200 209 218 218 219 229 232 230 212 193 179 143 110 78 59 41 36 41 46 55 61 61 75 81 78 79 96 109 115 127 123 113 125 124 114 111 115 122 128 129 127 127 136 149 159 165 174 181 190 196 195 186 184 182 189 187 178 168 164 163 172 177 176 178 179 170 167 164 166 166 168 170 166 161 167 173 178 182 185 183 179 177 179 183 184 185 186 180 172 164 164 163 164 165 169 173 171 173 178 188 192 190 190 188 178 170 165 168 167 165 163 167 173 173 166 155 158 164 157 146 137 118 108 98 75 59 51 53 54 56 51 45 46 40 32 27 24 21 20 21 23 23 23 23 21 20 19 19 18 19 19 19 21 24 26 23 22 24 24 25 25 29 36 41 43 47 47 45 43 36 33 41 50 62 76 78 77 67 59 53 58 69 79 90 99 112 126 131 128 126 131 133 139 147 163 166 172 182 190 188 190 188 182 182 182 179 175 177 167 158 148 145 139 140 147 156 157 153 148
148 160 169 177 180 188 191 188 182 190 187 180 180 190 185 185 172 169 171 169 165 166 171 169 169 165 160 156 150 147 152 151 156 166 184 198 204 211 220 230 228 219 219 225 226 230 218 195 172 144 114 83 68 45 40 47 49 53 57 63 82 91 87 80 93 108 111 115 108 96 105 110 106 100 95 106 113 112 118 123 130 139 149 158 168 171 174 178 178 175 176 170 173 170 161 154 151 152 162 163 167 173 169 160 155 154 158 161 165 168 167 162 166 175 180 183 186 182 177 178 179 182 186 185 183 179 175 172 173 169 168 164 163 168 167 171 181 192 194 189 187 187 181 173 163 166 171 169 167 171 171 175 167 157 160 152 146 146 147 128 104 91 73 63 52 50 55 56 50 47 47 38 29 27 25 21 20 19 19 19 18 19 17 17 16 17 18 19 18 17 18 19 23 22 21 22 22 24 25 27 34 40 46 51 51 46 46 40 37 46 58 70 85 95 87 72 60 53 58 76 85 98 98 108 119 121 121 126 126 120 127 138 154 166 176 189 191 189 190 190 187 185 182 178 171 167 158 148 138 132 128 131 141 148 149 150 144
156 171 176 178 179 184 187 190 183 195 197 198 195 190 178 179 180 174 182 193 187 181 181 188 189 190 184 174 173 174 180 171 177 190 207 215 216 220 228 237 234 226 222 218 212 223 214 199 169 137 113 90 78 53 46 49 47 47 46 60 77 86 86 78 86 88 93 90 86 86 89 98 100 87 84 92 97 101 111 117 125 130 140 151 158 159 160 161 163 164 163 160 161 152 146 146 146 145 146 148 157 162 161 158 150 149 147 154 161 161 163 160 163 170 176 179 181 175 175 177 181 182 185 180 177 177 175 174 177 172 166 162 159 168 168 174 184 191 191 188 182 183 181 175 166 169 172 174 174 179 177 183 177 161 149 138 137 133 137 126 105 84 65 55 50 49 56 55 49 40 37 30 25 22 20 19 17 15 14 15 14 13 14 15 15 15 14 16 15 14 14 16 19 21 21 22 20 22 26 27 32 37 44 50 49 48 52 48 46 56 67 85 94 98 88 82 67 59 65 81 88 100 104 113 115 115 114 123 125 121 124 134 154 164 172 187 188 189 190 192 191 187 184 179 170 161 155 148 139 128 119 118 128 136 141 141 133
161 180 188 187 188 190 186 189 193 199 210 205 200 189 177 180 181 189 198 209 213 204 193 200 213 216 212 202 196 195 197 195 192 202 213 227 231 236 237 236 234 230 218 209 208 219 218 199 168 143 112 87 77 62 48 50 58 57 53 60 77 85 86 80 80 72 77 85 79 78 75 82 86 80 76 80 87 94 99 104 116 125 134 142 143 144 145 150 153 153 148 154 152 140 138 144 143 137 137 141 149 160 159 151 144 142 137 143 154 157 157 157 159 163 169 170 171 171 172 178 179 180 181 174 169 173 172 169 168 168 166 165 162 166 170 175 182 191 189 189 187 184 177 172 168 164 170 174 177 182 182 188 184 167 145 131 126 128 129 124 107 83 68 54 51 54 55 47 45 36 33 26 22 18 17 14 13 12 12 12 10 10 11 12 12 12 11 11 12 13 13 15 18 20 21 21 21 22 23 25 27 32 42 49 49 50 54 51 53 66 76 95 106 108 102 97 78 72 75 86 95 107 106 109 112 109 105 118 122 118 121 137 153 161 175 188 195 198 197 196 196 187 181 176 167 157 150 146 135 121 114 112 120 125 129 130 132
173 178 194 193 190 195 191 182 189 197 199 196 194 191 189 191 194 212 222 231 238 237 224 221 220 222 226 220 209 205 212 215 206 209 214 235 240 238 241 234 229 232 225 217 209 206 205 194 171 147 119 102 78 63 57 60 73 70 69 74 83 85 83 80 82 76 71 76 71 69 61 64 68 67 63 65 72 81 87 93 103 114 120 123 121 125 134 145 144 142 137 139 139 139 136 140 133 132 139 138 142 151 153 143 135 128 125 131 141 145 149 152 154 159 166 164 164 168 167 173 170 168 170 166 162 164 165 167 164 166 165 165 167 173 176 178 181 188 187 185 185 183 176 174 169 161 164 174 182 184 180 181 176 168 152 136 125 121 118 115 107 89 77 63 55 54 48 39 40 34 31 26 21 16 15 11 10 8 9 9 8 8 9 9 10 11 11 10 11 12 13 16 20 24 23 22 22 24 25 29 30 33 39 47 50 51 54 54 58 69 77 92 105 109 107 103 94 92 93 102 109 109 109 108 104 104 104 113 117 114 125 137 143 151 165 177 187 194 193 191 191 185 182 178 167 155 146 137 124 114 111 110 112 114 120 125 127
170 176 191 192 194 191 195 183 187 182 186 200 198 202 207 210 212 226 238 249 249 247 241 231 223 223 228 230 221 222 224 221 215 218 220 236 244 244 242 237 240 239 236 225 218 205 200 191 163 143 123 111 93 67 64 65 75 74 82 85 92 92 87 85 84 76 70 68 68 68 61 58 58 56 55 56 61 65 75 81 93 105 109 114 113 121 128 132 132 129 127 132 131 133 134 138 132 132 135 138 141 144 146 141 133 125 127 128 128 128 131 137 142 149 156 157 157 160 161 163 159 155 154 152 152 153 162 164 160 163 167 163 169 178 175 174 178 181 181 178 182 182 175 171 164 156 159 167 176 177 175 174 173 165 151 134 120 119 115 107 100 94 80 65 54 52 46 37 36 31 28 24 20 14 12 10 9 8 8 8 7 8 9 9 9 11 11 11 11 13 14 18 24 28 28 27 27 28 31 35 37 37 41 47 51 55 56 62 68 68 74 86 100 105 112 110 103 100 99 105 121 117 111 111 110 103 106 111 116 117 128 133 143 149 157 168 177 184 183 184 179 176 176 171 164 156 146 135 126 115 110 108 104 103 113 118 119
151 159 166 165 177 183 193 197 190 184 188 201 210 213 221 230 232 243 251 253 250 247 245 238 227 219 223 229 228 231 226 219 217 222 228 239 249 251 246 245 248 247 243 231 218 212 209 197 163 142 123 113 91 68 72 76 76 74 88 94 95 95 94 87 80 70 68 69 67 69 64 61 54 52 53 53 56 58 64 70 83 96 103 106 115 121 121 122 127 132 126 125 132 133 134 133 131 129 130 133 137 138 139 139 135 130 124 121 114 109 113 121 130 138 147 149 148 152 151 152 149 146 143 143 148 152 156 156 156 162 167 165 168 171 171 171 171 171 176 177 175 175 174 174 169 162 159 164 172 171 168 166 166 156 143 135 125 115 111 102 97 89 79 63 57 52 43 37 32 29 28 27 20 14 11 9 8 7 7 7 7 7 8 9 10 11 12 13 13 14 16 21 26 29 33 34 33 35 40 44 45 46 48 54 55 57 59 65 74 73 77 83 96 101 109 111 105 102 107 112 123 128 120 116 118 116 108 108 119 126 138 147 146 147 152 164 169 169 166 168 171 166 160 162 160 155 146 135 129 122 110 101 100 103 112 116 113
113 121 144 153 166 181 197 207 198 191 188 200 216 215 223 232 238 249 249 250 244 238 236 230 222 212 222 229 229 229 222 217 223 229 235 247 253 254 251 249 246 243 241 235 222 217 205 199 174 151 127 117 95 73 70 81 80 79 86 89 95 100 101 99 88 75 67 69 66 67 64 60 53 52 48 48 49 53 58 63 72 83 90 96 108 112 109 113 123 132 123 122 134 132 129 126 123 121 121 129 133 130 131 131 124 120 110 106 107 106 108 113 122 127 132 133 139 146 145 145 142 135 131 133 137 144 147 150 152 155 161 160 159 162 168 167 169 167 167 173 174 169 169 172 169 165 166 171 178 174 167 161 158 149 144 138 131 119 106 96 93 88 82 68 61 51 45 40 31 30 29 25 20 15 9 9 8 7 7 7 6 7 8 9 11 13 14 15 17 18 20 23 27 31 34 37 38 43 50 53 54 59 62 66 65 65 66 71 74 73 74 81 93 97 98 101 108 105 113 121 124 129 128 126 124 121 106 105 117 127 143 154 145 147 148 154 158 155 155 156 162 160 153 157 157 153 142 131 125 119 110 100 97 107 116 115 110
89 100 116 130 148 163 188 200 201 196 194 202 214 215 222 233 238 248 248 250 241 238 238 232 221 207 213 224 223 222 222 221 229 236 241 246 248 253 251 247 243 242 243 237 229 222 211 199 179 162 139 118 92 76 77 93 89 90 92 91 97 105 108 104 87 75 73 70 67 62 63 61 55 50 42 40 42 45 50 55 64 70 76 83 95 99 101 110 123 129 124 121 125 122 118 123 119 116 116 122 129 126 128 126 115 104 102 97 97 93 95 102 110 116 116 118 126 133 134 134 130 126 120 126 130 132 134 139 145 146 148 151 149 155 159 162 161 159 160 163 169 170 174 176 174 171 170 172 172 169 160 149 145 139 138 140 128 118 106 102 91 82 69 62 60 51 43 40 33 31 28 27 24 18 11 7 6 6 6 6 6 7 8 10 12 13 15 16 19 20 23 26 29 34 39 43 48 53 59 63 67 70 72 75 75 74 74 74 75 77 75 83 90 95 93 99 104 100 104 111 113 123 130 130 129 120 119 116 118 130 145 154 148 148 147 145 144 141 142 149 152 153 155 154 152 151 141 132 124 122 116 103 99 107 111 112 115
77 84 85 95 119 143 166 178 188 192 195 200 209 213 220 231 237 249 253 252 245 245 244 238 224 206 203 210 213 217 223 227 232 239 239 236 236 243 246 241 237 236 238 235 228 227 221 199 182 168 149 119 89 76 85 92 93 95 93 94 100 107 106 97 84 80 76 69 63 57 56 54 50 44 38 36 36 38 43 51 56 59 63 70 78 87 93 103 114 120 120 119 116 116 116 114 109 104 103 113 122 120 124 124 109 96 93 84 84 84 86 90 101 106 109 110 112 117 123 124 121 118 120 126 126 127 125 128 131 133 134 140 141 147 152 155 153 155 159 160 164 173 179 187 182 177 176 174 169 164 158 145 139 135 135 132 126 116 110 103 79 68 63 56 59 54 45 43 40 36 32 28 25 20 11 7 6 6 6 8 8 8 10 11 13 14 17 20 23 26 30 33 36 40 46 52 59 60 64 72 79 82 81 82 82 81 78 79 78 81 81 87 91 94 93 98 99 99 99 105 112 123 132 127 120 123 131 126 125 138 147 152 149 147 142 136 139 138 134 143 147 151 150 151 151 149 140 134 126 121 114 103 102 104 106 111 119
61 69 73 86 107 125 142 156 178 191 190 195 208 222 229 234 240 251 253 249 246 240 242 237 221 204 201 209 218 222 226 230 229 239 238 231 228 225 224 216 214 217 220 221 223 229 221 193 179 168 154 125 99 85 85 87 90 98 93 93 100 108 107 95 84 75 71 62 56 53 52 47 42 36 31 31 30 31 36 40 44 47 51 59 63 66 73 82 96 103 108 104 99 103 104 96 89 86 86 93 99 98 97 102 94 84 82 79 77 82 81 83 94 100 104 102 102 103 108 111 114 116 121 122 121 118 111 113 114 116 120 128 130 136 145 151 149 154 160 161 164 171 177 188 190 187 185 177 165 163 157 143 140 133 126 127 130 121 113 105 80 67 66 60 62 58 52 51 47 37 32 29 24 19 13 10 8 7 7 11 13 13 14 15 16 17 21 25 31 35 39 42 44 48 53 59 66 68 71 76 83 89 90 89 89 90 81 79 81 86 87 92 91 93 89 92 99 100 97 100 109 117 125 120 122 122 127 131 130 140 144 143 141 140 135 129 129 133 135 145 150 148 147 154 153 148 141 129 120 118 115 105 102 105 109 120 128
58 59 68 85 100 104 126 152 172 182 184 189 201 216 218 225 236 240 248 246 243 238 239 233 221 207 203 205 220 229 233 234 232 234 237 229 218 205 200 194 197 197 202 207 217 227 221 191 178 167 146 123 105 87 89 88 83 91 88 93 97 98 95 88 73 64 59 51 49 47 45 37 33 31 29 25 23 25 29 33 35 38 42 45 50 53 60 71 83 89 90 91 89 88 84 79 77 80 76 75 75 73 72 70 75 75 71 72 71 79 81 83 95 98 97 98 95 94 93 94 98 105 113 114 108 99 98 98 100 99 105 112 118 123 138 146 145 150 158 164 166 170 178 187 193 194 188 182 171 169 163 155 147 133 125 125 120 119 113 106 87 75 70 59 59 55 53 57 50 37 30 30 26 20 15 11 10 9 10 14 17 19 18 20 19 20 25 30 37 43 48 51 54 56 59 68 76 78 77 82 90 95 94 94 91 95 85 76 76 85 85 91 89 90 85 87 93 94 95 99 109 115 119 116 121 122 124 127 132 136 133 132 129 130 123 118 122 129 134 143 147 147 149 153 154 150 138 123 114 114 113 105 105 107 114 124 136
61 59 58 74 89 94 120 154 173 177 186 191 192 205 211 218 227 232 237 238 234 233 231 222 217 211 215 210 216 222 228 231 231 226 220 210 202 190 190 187 186 180 187 200 213 219 208 182 171 161 146 125 119 97 92 93 86 77 75 79 86 87 82 76 64 52 47 48 44 38 36 33 30 28 24 21 19 19 23 28 29 32 36 38 42 45 56 65 72 76 79 80 80 73 70 66 67 73 70 65 58 55 56 54 61 70 67 65 67 75 81 82 90 89 88 92 86 80 77 75 80 90 89 88 87 79 79 79 80 79 88 96 105 114 128 135 135 140 147 155 163 169 175 188 195 198 193 187 176 175 166 158 154 139 130 122 114 117 116 110 100 87 76 70 62 56 54 58 51 39 34 31 30 23 16 14 12 13 15 17 20 22 22 22 21 24 29 34 43 52 58 61 65 68 71 79 88 90 90 95 102 102 98 98 95 94 86 77 74 79 82 82 81 84 81 82 85 87 90 95 102 110 108 104 112 120 121 118 119 120 124 122 118 121 113 105 108 118 132 136 138 136 140 148 146 141 133 124 114 109 108 102 101 104 115 122 131
55 58 56 66 73 92 119 147 169 176 182 192 197 204 215 214 216 226 231 234 222 219 217 213 214 206 211 216 216 215 214 212 209 209 205 196 191 182 182 180 177 175 184 192 201 196 184 162 148 141 141 131 123 102 95 86 81 74 64 63 72 75 73 67 59 47 40 43 38 32 32 28 28 25 21 20 15 15 18 20 23 25 31 35 37 42 52 56 63 66 70 70 71 64 60 54 55 60 61 55 47 44 43 43 52 59 58 61 63 71 75 72 77 78 79 80 74 66 65 68 68 70 67 69 65 63 67 68 70 71 79 88 99 111 121 126 128 133 139 147 158 168 172 182 190 197 196 195 186 178 167 160 150 140 138 135 132 129 127 116 108 105 95 80 64 61 57 57 51 39 36 35 34 26 22 18 15 15 17 21 24 24 24 25 25 29 36 41 49 59 66 71 75 81 88 94 99 100 104 111 118 115 112 106 101 96 88 79 75 72 75 79 78 79 78 78 83 87 91 96 94 99 103 102 111 117 115 113 111 110 115 115 113 107 98 96 101 108 118 126 130 130 132 135 136 130 130 124 116 105 103 100 99 101 115 124 129
53 57 57 59 62 88 109 130 154 171 183 184 190 204 210 210 219 226 228 230 220 210 214 215 209 202 196 205 215 208 201 204 197 190 184 180 175 173 171 168 177 182 182 185 180 178 166 151 137 129 129 124 124 112 98 81 76 67 58 57 70 75 68 61 59 52 46 40 33 31 33 27 24 22 19 17 16 15 15 18 20 23 26 31 36 41 47 53 59 63 67 66 59 56 51 47 47 49 48 42 38 32 32 38 44 46 48 52 50 58 65 62 62 66 70 68 65 55 54 57 55 52 53 53 49 49 57 62 63 66 71 82 93 106 115 118 122 132 136 144 155 162 170 179 186 192 194 199 195 183 174 163 151 146 145 151 143 138 128 114 110 109 95 78 65 59 61 58 51 42 38 34 31 30 26 21 17 16 21 24 25 26 27 29 32 35 41 50 56 67 76 82 86 94 100 105 111 113 119 124 128 127 122 117 113 103 96 81 70 65 73 81 81 79 81 79 80 85 86 90 85 90 95 100 106 111 112 110 109 106 106 111 104 100 98 97 97 105 112 120 126 127 127 123 122 123 123 120 115 105 102 102 101 104 117 125 128
43 48 53 54 54 73 91 104 133 161 182 180 185 194 206 217 225 230 234 230 219 213 214 212 203 197 194 197 206 197 189 192 185 175 169 167 165 168 168 164 171 187 186 179 165 155 150 147 137 123 124 121 115 104 94 86 84 69 66 65 69 69 64 60 60 55 48 40 36 33 33 27 21 17 15 16 17 15 15 18 19 21 24 30 37 41 45 50 56 59 60 59 53 48 47 45 42 42 36 28 26 26 25 33 35 38 40 39 40 47 51 51 53 56 58 58 54 45 41 43 39 37 40 43 46 45 51 53 55 62 67 77 91 102 107 112 120 131 137 142 151 164 171 177 187 192 194 200 202 196 188 179 165 157 150 150 143 137 119 103 94 98 91 76 64 62 59 53 49 45 41 37 31 32 30 24 18 17 21 23 26 29 32 33 36 40 45 55 63 74 85 94 98 101 108 113 119 123 128 133 137 137 131 127 121 113 105 88 75 71 81 86 89 90 88 82 84 85 83 82 77 85 94 100 103 110 114 112 111 105 98 101 99 94 93 99 101 108 108 111 118 118 117 111 112 114 111 109 109 106 98 103 109 110 116 124 127
42 50 59 57 59 66 86 103 130 157 174 174 178 188 211 220 227 232 231 228 220 216 213 209 201 193 189 194 203 196 183 181 174 167 163 156 152 158 160 158 164 178 181 175 159 142 136 139 128 120 124 117 110 97 88 90 89 81 76 64 65 62 63 64 62 61 52 46 39 37 32 25 19 16 15 16 16 15 15 17 19 20 23 27 34 40 45 49 51 54 52 49 49 48 45 42 37 32 23 17 16 18 20 29 33 33 36 37 39 40 44 43 39 44 42 42 40 40 36 37 32 32 35 40 41 40 47 49 51 57 66 75 89 98 102 110 121 128 134 140 152 165 171 178 186 191 196 201 208 207 204 200 186 173 159 153 147 134 105 90 77 78 77 66 54 55 51 42 42 43 39 35 34 33 31 23 20 19 21 25 30 33 37 39 43 45 48 58 68 79 92 100 106 110 114 120 127 133 139 141 144 145 143 136 127 116 105 96 89 88 94 98 101 96 89 86 84 79 78 77 74 80 90 95 103 105 108 107 111 103 96 94 98 99 94 100 104 108 102 98 107 110 108 101 101 103 103 104 102 97 92 103 111 117 120 124 128
42 53 61 62 68 73 84 104 120 146 160 174 181 196 216 224 223 223 225 221 217 215 208 198 194 190 188 193 197 194 181 169 165 168 166 160 155 155 154 154 153 164 167 158 144 137 129 129 120 120 116 111 111 99 91 87 89 84 72 62 58 61 61 58 59 53 49 44 38 36 30 24 18 17 17 16 16 17 16 19 20 21 24 26 31 36 42 45 43 44 46 47 44 43 40 38 31 23 17 13 11 12 17 26 30 32 36 38 36 38 38 37 35 38 38 35 33 37 34 33 33 35 36 36 35 39 42 46 49 55 61 67 82 90 93 105 116 124 136 142 151 165 171 175 186 197 204 205 209 216 218 210 197 191 177 161 160 140 109 91 80 72 65 54 49 48 41 35 40 40 35 33 33 34 33 25 23 22 22 27 33 37 40 45 48 51 54 63 74 84 96 106 113 119 122 125 130 139 147 150 151 154 151 143 139 127 109 103 105 104 103 104 104 96 90 88 87 81 81 78 77 79 85 93 101 105 104 103 101 96 95 102 111 108 103 104 106 103 97 94 100 101 97 91 89 96 97 98 96 91 92 103 111 120 127 129 134
39 46 60 65 68 78 91 99 109 130 149 175 186 199 215 218 215 212 214 208 204 200 192 185 185 185 184 187 188 185 179 168 171 175 175 168 162 151 152 152 148 153 158 152 132 123 120 120 118 120 112 106 106 102 102 90 88 80 68 59 51 55 54 51 52 47 38 34 33 31 27 24 19 18 18 16 18 20 18 19 20 21 23 26 30 34 36 37 36 37 40 42 38 36 32 30 21 16 13 10 9 10 14 20 24 27 31 35 30 30 31 29 29 33 33 29 30 33 32 33 37 37 37 34 35 40 41 45 47 52 55 60 70 77 81 92 107 120 132 141 150 159 167 174 184 197 204 204 206 209 219 217 201 196 182 164 161 140 115 99 76 66 59 54 48 45 37 31 34 34 30 29 32 34 30 26 26 27 26 31 34 38 40 46 49 54 59 67 76 87 102 112 119 124 130 133 135 143 152 160 163 165 155 148 149 142 124 119 118 112 102 99 99 95 94 97 94 89 87 82 83 87 91 97 100 103 103 103 100 99 97 107 117 119 114 114 113 106 98 94 95 94 89 88 93 97 90 88 88 89 96 107 113 121 131 137 142
38 44 59 67 75 80 97 106 117 122 134 164 183 199 210 206 201 196 197 191 189 183 173 168 172 181 184 186 183 181 179 168 168 174 179 177 171 157 151 147 139 131 142 142 129 124 115 107 113 115 108 101 94 103 100 87 80 71 65 53 49 51 49 45 42 37 33 28 27 26 24 21 18 17 18 17 18 20 19 19 20 19 21 24 28 30 29 30 29 31 34 34 29 25 23 22 17 16 11 8 7 9 13 16 20 25 26 28 25 23 25 23 22 22 23 27 30 33 32 32 34 33 35 35 38 40 44 46 47 49 49 56 62 68 79 85 91 110 125 136 147 156 164 171 181 196 199 196 196 202 210 209 195 184 176 168 157 136 108 97 75 58 51 47 42 43 40 32 28 28 27 27 29 29 26 24 21 23 25 30 34 37 40 45 50 57 63 69 78 91 106 119 125 132 138 138 142 146 154 161 166 169 163 154 148 143 132 125 122 114 110 102 103 101 106 109 109 106 93 89 88 94 101 102 104 105 103 106 104 103 106 113 124 125 118 117 116 110 105 100 90 88 86 91 97 97 91 88 87 86 93 107 115 122 131 141 143
43 48 57 68 79 85 102 121 122 114 125 153 176 188 194 185 181 181 181 179 175 171 165 158 157 164 173 180 179 182 178 171 169 172 175 170 166 164 154 149 134 122 127 128 131 127 113 101 106 108 106 96 87 93 96 83 70 64 56 46 42 44 42 40 39 33 29 24 22 20 19 19 15 13 14 14 15 17 16 16 17 17 16 17 23 25 24 23 24 28 28 24 18 17 16 16 14 13 10 7 5 7 10 13 20 23 22 22 20 18 19 21 18 13 15 22 28 30 30 29 27 27 32 39 40 40 43 46 47 44 44 48 56 61 74 80 87 102 114 132 148 158 162 166 175 190 192 183 181 185 191 190 179 166 165 165 149 111 92 78 59 42 37 42 38 40 42 37 29 29 28 28 29 27 24 22 21 18 19 25 29 32 39 47 54 60 65 71 80 94 108 120 127 137 147 147 149 154 159 162 164 166 163 152 140 140 135 132 130 122 119 111 108 110 116 118 122 114 100 93 99 107 110 108 106 105 108 115 115 110 111 116 120 120 120 114 114 110 107 96 85 88 89 92 97 92 92 90 84 87 95 109 117 122 131 138 139
50 56 59 67 75 89 106 115 117 110 117 144 165 170 177 174 171 172 170 167 162 160 156 149 150 157 169 175 176 181 181 175 167 168 168 166 161 162 156 153 141 125 122 123 126 115 103 92 96 94 99 96 85 88 86 79 63 55 49 43 41 42 40 37 35 29 24 19 17 15 14 13 11 10 10 10 13 13 13 13 14 14 14 15 21 23 23 21 20 23 21 18 13 10 9 8 8 8 8 6 4 5 7 10 16 17 16 17 16 15 16 17 15 13 14 17 21 22 23 26 27 29 34 43 48 45 44 45 45 43 43 43 47 53 64 72 79 91 108 127 143 151 154 160 168 180 179 174 171 172 179 181 168 154 152 141 122 89 67 52 42 35 35 40 41 43 41 39 29 28 26 26 27 26 23 20 20 18 17 22 27 32 39 47 56 61 67 74 84 97 108 117 125 135 145 149 156 160 164 169 170 165 154 148 141 141 137 140 138 132 130 121 115 116 117 117 119 114 109 105 110 112 113 109 108 110 115 117 124 121 112 112 115 118 124 118 113 106 102 97 90 91 94 96 98 90 89 88 83 89 100 114 125 128 134 138 138
50 56 58 65 82 102 109 117 123 113 118 135 152 158 160 165 167 161 159 156 155 154 148 147 148 154 164 173 172 179 184 177 165 164 161 159 163 157 148 147 143 137 125 127 124 113 101 90 92 87 87 88 85 87 82 74 60 52 49 45 42 39 37 33 30 24 20 16 14 11 10 9 7 7 8 9 12 12 11 11 11 12 12 16 19 22 19 19 18 17 15 11 9 5 4 4 5 7 5 5 4 4 5 7 10 10 12 14 17 15 15 16 16 16 15 18 22 21 22 26 29 34 42 47 51 49 48 48 49 47 47 44 44 48 54 62 71 87 102 114 132 141 149 151 160 169 170 172 165 165 169 171 157 148 133 125 98 71 50 39 30 30 34 40 46 41 37 34 27 23 22 24 24 25 26 25 21 19 19 20 25 32 40 48 55 62 68 75 84 95 107 115 124 134 144 150 157 161 166 171 174 164 155 145 136 135 135 140 143 146 139 129 120 118 115 113 113 115 111 110 113 114 115 117 115 116 116 116 122 126 116 108 115 119 120 122 113 109 101 96 100 101 96 90 90 85 86 86 91 97 108 120 127 135 136 140 143
48 50 56 71 98 117 121 125 130 122 122 129 141 155 159 159 157 155 151 149 150 151 150 152 154 157 161 163 166 173 179 173 167 161 154 154 158 156 148 145 147 145 135 128 123 112 102 95 99 91 87 86 86 85 73 71 61 55 50 47 42 37 34 30 26 21 17 13 11 9 7 6 5 5 6 8 12 13 12 11 13 13 13 17 19 20 17 19 16 13 12 8 6 4 3 3 5 6 4 4 3 3 5 5 5 6 9 13 16 15 14 14 17 19 17 18 20 21 24 26 30 35 41 46 50 51 51 51 54 51 51 48 45 46 50 58 65 80 91 102 122 134 141 140 149 156 162 164 166 166 168 163 145 135 126 117 90 60 41 31 31 30 35 41 44 39 34 31 24 18 18 21 23 26 29 30 25 24 23 21 24 31 39 48 55 62 67 74 83 94 104 111 124 136 142 149 158 162 168 176 179 170 157 148 138 135 134 131 142 144 131 126 117 114 114 115 114 110 105 108 110 112 111 116 119 116 114 113 116 123 119 116 118 118 116 120 116 112 103 105 111 106 94 88 88 86 85 86 97 107 121 129 133 139 137 139 144
45 52 63 82 105 123 128 128 130 129 130 131 137 148 155 158 154 153 145 144 146 148 150 153 157 155 156 155 160 165 173 169 165 162 159 154 156 161 162 156 155 149 140 126 118 109 107 102 98 88 87 86 87 89 80 73 61 55 52 50 44 39 34 29 24 19 15 12 10 8 6 5 4 5 6 8 10 12 14 13 15 14 15 18 17 16 14 16 15 11 9 7 6 3 2 4 5 4 2 2 3 3 3 3 2 4 7 11 13 13 12 12 17 20 19 21 23 24 26 30 36 40 43 47 50 52 52 54 56 53 50 48 45 47 51 58 64 76 83 95 113 125 130 131 140 145 150 150 158 161 163 155 139 124 117 107 81 59 42 28 27 32 40 44 40 37 32 31 25 22 25 26 28 33 37 40 34 30 30 27 30 36 44 52 57 62 67 74 83 93 102 112 123 133 143 150 159 170 176 182 178 174 164 154 142 138 138 133 132 128 121 118 110 109 111 112 117 113 110 110 106 109 114 116 115 112 112 109 112 119 116 119 119 115 112 116 112 112 110 111 109 103 91 88 88 90 93 98 108 115 128 133 135 138 137 142 145
49 54 62 80 104 115 119 121 123 131 141 140 140 147 152 157 154 150 143 143 147 147 147 152 156 151 153 154 156 160 163 163 160 159 160 158 160 163 165 167 167 161 152 133 117 105 110 114 107 95 91 94 92 90 89 80 67 59 57 55 48 41 35 29 23 19 15 12 11 9 6 5 5 5 6 8 8 10 13 13 13 16 16 16 15 14 14 13 11 7 5 5 4 2 3 4 4 2 2 2 3 4 3 2 2 4 6 9 12 11 11 12 16 20 24 24 25 27 29 34 38 45 47 48 51 55 55 57 55 53 51 50 48 49 52 58 63 68 78 90 104 109 110 117 123 133 139 140 142 146 148 142 126 114 103 84 66 46 31 25 27 38 42 45 38 39 38 37 32 31 35 35 34 41 44 48 46 41 36 36 38 43 51 56 62 63 68 80 87 90 100 108 117 129 141 145 156 169 178 183 180 172 163 149 142 139 140 134 128 117 110 109 102 106 108 110 116 116 108 105 100 108 118 122 118 114 112 110 115 120 118 116 121 118 118 115 110 110 114 113 107 99 97 92 92 95 103 109 110 117 128 138 136 131 130 137 141
48 56 62 75 92 103 108 109 117 133 150 154 154 157 160 156 150 146 144 145 148 149 149 151 150 147 152 152 154 156 159 161 160 155 158 164 166 165 171 177 181 171 161 147 129 112 113 118 115 112 108 108 105 101 95 87 72 63 60 55 47 40 33 29 24 19 15 12 11 9 7 6 7 7 6 6 7 9 11 13 13 15 14 14 13 14 14 11 8 6 4 5 3 2 2 3 2 2 3 3 3 3 3 2 3 4 5 7 11 11 10 11 16 19 24 26 28 30 31 35 40 45 49 52 55 60 60 59 55 53 53 51 49 48 51 59 64 68 77 86 92 98 98 107 110 116 123 124 127 130 129 121 110 95 80 66 50 31 24 23 26 35 41 43 37 41 39 39 36 35 39 42 41 44 48 52 50 49 43 42 47 52 57 60 64 68 69 80 87 91 98 102 109 121 134 141 152 165 175 178 175 166 152 142 142 143 140 128 125 111 100 95 91 95 99 100 108 111 105 103 101 109 119 124 123 117 112 110 109 112 111 114 121 124 122 118 112 111 116 112 106 98 98 98 101 102 108 117 117 121 130 137 134 127 125 125 130
48 52 57 66 82 94 98 104 114 128 144 154 159 161 161 156 151 147 146 146 145 145 146 147 147 147 149 148 153 156 156 160 160 154 158 163 168 171 176 177 182 181 172 158 144 126 118 120 126 123 120 121 115 110 100 91 75 68 64 56 47 40 32 27 24 19 14 11 10 9 8 8 9 8 7 6 7 9 11 12 12 13 13 15 13 13 12 9 6 6 3 2 2 2 2 2 1 2 2 2 2 3 3 3 4 5 6 6 7 9 9 11 14 18 21 27 29 33 36 36 39 43 47 49 51 56 61 60 55 54 56 53 50 49 49 53 59 69 77 83 89 92 91 98 101 99 103 101 108 110 115 109 101 91 78 57 41 29 24 23 28 30 36 34 29 30 30 35 38 45 49 50 49 47 57 61 61 56 53 52 60 64 68 69 66 69 71 79 84 89 92 99 105 117 128 141 151 159 171 173 166 159 149 139 141 138 134 124 116 102 94 90 92 92 98 97 102 107 105 101 102 108 120 124 125 120 113 110 106 109 114 123 126 133 128 123 122 118 122 119 115 104 102 108 113 110 116 120 123 127 133 135 132 122 121 120 121
45 50 55 68 81 94 104 109 119 130 138 147 155 159 158 154 151 147 146 144 143 141 143 142 143 145 147 146 153 159 160 159 160 154 156 164 170 173 176 179 180 182 173 162 156 138 123 125 132 129 128 128 122 116 105 89 75 70 69 59 48 40 32 26 22 19 14 11 10 9 9 9 9 9 8 7 8 9 10 11 11 11 12 13 11 10 10 8 5 5 2 1 1 1 1 1 1 2 2 1 1 2 2 3 4 5 5 5 5 6 8 9 10 13 17 22 27 32 39 40 41 42 43 46 48 51 60 61 57 55 57 53 51 50 49 49 57 67 74 77 84 89 90 93 89 93 98 101 101 102 107 96 91 91 83 64 41 32 23 19 20 25 27 25 24 22 22 25 34 47 54 59 60 62 74 77 70 65 65 68 73 74 76 73 70 74 78 83 85 88 92 101 111 118 127 141 148 154 158 159 155 148 145 136 134 127 120 113 105 95 95 96 92 88 88 94 98 99 104 103 103 111 117 120 122 114 112 111 112 116 127 131 129 133 127 120 123 126 126 126 122 118 117 120 120 117 117 124 131 132 138 139 131 120 119 122 119
41 45 56 74 83 94 107 120 129 136 136 138 143 150 151 151 149 146 147 145 141 138 141 142 142 145 149 146 152 155 159 157 154 148 151 161 169 174 176 177 175 178 173 165 164 149 136 132 137 140 139 134 127 119 104 90 79 73 69 58 48 40 31 25 22 18 14 12 10 10 9 10 10 10 10 9 9 9 9 10 10 10 9 9 9 9 8 6 4 4 2 1 1 1 1 2 2 2 2 1 1 1 2 3 3 3 3 3 3 4 6 7 7 10 14 20 26 31 37 42 44 42 40 43 48 52 61 66 63 59 56 52 51 49 48 51 58 67 69 73 80 84 88 91 89 94 99 104 103 106 104 89 79 80 79 63 43 34 26 20 16 17 18 17 20 22 22 20 26 43 56 67 79 88 96 96 86 80 77 77 80 77 76 78 77 80 84 87 88 91 95 103 112 117 126 138 143 146 148 147 146 141 138 131 126 117 111 108 103 95 92 91 87 86 86 92 93 91 95 96 100 110 115 117 120 117 122 125 126 127 130 131 130 126 121 123 126 131 133 135 134 134 138 138 128 123 120 122 130 136 137 133 123 116 119 120 119
38 50 62 76 91 101 112 121 126 131 129 131 135 141 143 143 141 142 144 143 140 138 138 142 144 148 147 146 151 152 157 153 150 149 153 160 166 172 176 174 179 180 179 171 168 154 143 135 147 150 144 134 123 116 102 90 82 76 69 60 52 42 32 26 23 19 16 12 11 11 10 11 11 11 11 10 10 10 10 9 10 10 9 8 8 8 6 4 3 2 1 2 1 2 3 3 2 1 2 1 1 0 1 2 1 1 1 1 2 3 4 5 6 9 14 20 25 30 34 38 40 41 39 42 46 51 58 62 57 57 55 51 50 49 50 51 54 64 68 70 73 77 85 86 89 91 97 102 105 102 93 81 77 70 68 62 47 35 26 20 16 16 19 18 19 20 20 18 29 45 62 79 87 100 102 106 98 92 83 90 93 84 84 83 85 90 93 92 94 97 98 102 109 116 124 133 140 143 143 140 138 134 130 126 122 115 109 105 102 98 92 86 87 88 91 92 96 96 92 90 95 107 112 116 116 117 126 131 135 136 137 127 123 122 116 123 129 126 133 140 149 150 154 150 137 125 118 120 122 131 130 127 119 115 115 119 122
42 54 67 76 94 107 112 117 123 127 122 126 131 135 140 137 136 140 140 140 138 137 139 143 145 148 148 148 150 152 155 157 153 152 155 156 163 169 174 176 183 185 181 176 172 160 152 151 155 160 150 136 126 119 106 92 83 78 68 61 52 43 34 28 23 20 18 15 13 13 13 12 13 13 13 12 12 12 11 10 10 10 9 7 7 6 4 3 1 0 1 1 1 2 3 4 3 2 1 1 0 0 0 1 1 0 0 0 1 2 3 4 6 9 13 19 24 26 29 34 37 39 41 43 44 50 54 55 53 53 51 48 49 52 53 55 54 60 65 67 73 83 89 85 88 88 89 90 90 90 85 73 70 65 56 53 44 33 26 22 19 18 17 17 20 22 22 24 36 51 65 80 94 105 106 116 116 105 95 97 100 99 94 89 93 98 97 95 98 98 100 102 105 111 118 127 135 139 136 129 128 128 124 120 117 115 108 104 101 100 94 86 83 87 92 92 93 95 94 91 94 100 106 110 110 116 126 131 136 137 138 129 120 116 114 122 123 126 129 141 152 160 160 152 139 118 111 119 120 126 129 123 120 117 115 112 113
51 60 68 73 87 98 104 118 123 124 121 124 125 127 134 134 134 139 140 139 139 139 142 143 143 147 148 149 150 150 154 159 158 156 153 157 166 174 181 183 184 185 183 180 178 172 168 169 166 166 156 140 130 121 109 97 86 78 66 60 51 44 38 32 26 22 20 18 17 16 15 14 14 14 14 13 13 13 13 12 11 10 9 8 7 6 4 2 1 1 1 2 2 2 2 3 3 2 1 1 0 0 0 0 0 0 0 0 0 1 3 5 7 9 12 16 21 23 27 30 35 39 43 46 48 50 52 55 55 53 53 51 51 52 54 57 56 59 59 64 77 84 85 81 84 81 78 78 78 76 74 62 54 51 44 41 36 33 33 32 30 24 17 16 22 27 27 31 43 54 67 83 89 103 123 131 126 113 106 102 101 104 99 100 103 102 101 100 99 98 101 103 103 109 115 123 132 132 126 124 123 124 119 115 112 109 108 107 102 100 94 88 82 83 87 84 87 89 90 87 91 97 99 103 106 115 123 131 137 138 138 130 121 114 111 114 117 123 127 144 155 157 162 157 141 122 117 114 115 125 127 120 117 114 110 103 105
48 54 60 67 81 94 102 113 119 116 117 122 120 123 130 132 133 137 139 138 140 141 143 144 144 146 149 151 151 153 160 162 163 164 160 164 172 177 182 187 193 193 194 189 178 177 178 176 173 172 166 148 133 125 115 105 95 83 71 64 53 45 41 36 30 26 24 22 21 19 17 16 16 16 15 15 15 15 16 14 12 11 10 9 7 6 4 2 2 2 2 2 2 2 2 1 1 1 0 0 1 0 0 0 0 0 0 0 0 1 2 4 5 7 10 12 15 18 22 28 36 38 42 48 51 53 55 59 57 56 55 54 54 53 61 62 59 56 60 66 80 83 75 81 87 83 77 69 72 71 65 55 42 36 39 37 34 35 40 40 40 33 25 23 26 28 33 42 51 61 71 82 87 105 125 138 128 123 117 112 105 105 101 106 105 105 103 102 102 102 105 104 100 103 110 115 123 124 120 118 122 121 118 111 109 106 110 108 103 102 96 90 81 83 86 84 84 87 87 87 94 97 98 103 112 126 129 134 140 140 137 125 122 120 122 118 121 120 129 140 152 154 155 151 140 129 120 115 115 116 116 116 109 107 109 101 95
48 52 54 61 77 92 103 112 114 111 114 119 118 121 128 127 128 130 134 137 139 143 143 143 143 144 148 153 157 159 164 167 170 173 173 174 179 185 187 192 199 200 197 193 185 183 180 179 178 175 168 153 134 123 119 111 102 91 81 71 60 49 44 40 35 31 28 26 24 22 21 19 19 18 18 17 17 16 17 16 14 13 12 10 8 6 5 3 4 4 3 1 1 1 1 1 0 0 0 0 0 0 0 0 0 0 0 0 0 0 1 3 3 5 7 8 12 14 18 26 34 39 42 47 52 56 60 63 62 59 57 58 59 61 69 67 63 59 62 67 73 74 69 78 86 85 77 70 67 62 56 47 32 31 35 37 35 37 46 47 47 44 42 36 35 36 42 54 61 60 66 71 74 97 116 121 123 127 124 118 113 106 102 108 104 101 103 101 102 106 107 103 97 99 104 108 110 113 111 112 117 121 119 114 110 107 106 104 104 104 99 90 84 83 86 86 85 86 84 87 94 98 100 106 118 129 135 136 139 141 135 125 124 123 128 124 123 121 128 129 138 144 143 141 133 126 124 118 112 110 105 100 96 97 98 95 89
48 53 56 62 71 87 101 112 116 116 123 127 130 131 132 129 130 133 139 142 142 144 142 142 140 139 146 153 161 164 170 175 178 180 182 184 184 189 194 195 198 200 196 193 193 190 187 185 185 183 172 154 141 131 123 115 108 99 92 78 63 54 48 43 39 36 33 30 28 26 24 23 22 21 20 20 20 20 19 19 15 13 11 10 8 7 7 5 6 5 3 1 1 1 1 0 0 0 0 0 0 0 0 0 0 0 0 0 0 0 1 2 3 4 5 7 9 11 16 24 31 34 37 44 49 56 63 66 67 67 62 64 66 66 71 73 69 64 61 62 63 62 63 71 75 77 67 63 60 57 44 39 31 29 30 33 36 43 53 53 55 51 52 48 46 44 47 60 64 61 67 67 75 98 106 109 126 132 129 127 125 112 107 108 103 106 106 100 102 106 103 100 96 98 98 102 103 105 108 112 114 119 116 112 104 103 102 104 103 104 100 93 88 82 80 82 83 85 84 88 90 93 99 107 117 125 135 138 139 140 134 123 123 123 126 121 119 111 111 121 135 139 137 138 126 115 110 110 102 98 92 82 77 80 79 81 80
52 55 60 64 71 86 101 114 119 125 129 131 134 136 130 128 131 139 144 146 144 143 140 140 140 138 144 153 164 168 172 178 180 181 185 186 189 194 197 196 196 198 194 194 200 199 196 192 191 189 178 163 152 145 134 128 120 113 100 86 69 59 53 48 44 42 38 36 33 31 29 28 26 25 24 23 22 22 22 21 17 14 13 12 9 8 7 8 8 7 5 3 2 2 1 0 1 1 1 0 0 0 0 0 0 0 0 0 0 0 0 1 2 3 4 6 7 9 13 19 24 28 33 41 47 54 63 66 71 72 68 69 70 70 71 72 69 66 65 65 62 61 63 60 60 63 57 51 52 44 33 31 29 27 29 34 40 46 60 65 69 67 60 58 58 52 51 54 61 64 68 69 78 87 102 117 130 138 141 143 144 132 125 121 115 114 110 104 102 101 98 97 98 96 94 95 94 97 103 108 110 113 111 107 103 102 104 104 105 107 105 99 92 84 78 81 83 85 86 90 89 91 96 101 111 124 128 134 140 146 137 123 125 126 120 120 114 101 103 120 132 135 134 134 125 108 100 93 91 84 74 67 64 67 64 65 64
53 59 66 72 76 90 105 116 123 128 135 134 136 136 133 129 133 142 146 146 142 142 136 136 140 140 144 155 166 170 174 178 181 181 185 189 193 197 198 197 195 194 192 195 201 200 197 194 193 188 180 172 165 160 153 146 136 127 112 97 82 69 60 55 52 49 45 42 40 37 35 33 32 30 28 27 26 25 25 23 20 17 16 14 11 10 10 10 11 9 8 6 4 4 2 2 2 3 3 2 1 0 0 0 0 0 0 0 0 0 0 1 1 2 3 4 6 7 11 15 19 24 30 37 45 51 58 63 67 70 70 73 76 76 74 73 71 67 71 73 63 63 61 54 49 51 53 47 46 36 27 25 26 28 33 39 42 46 64 72 78 73 64 66 60 50 49 49 52 60 70 76 74 82 97 116 129 137 148 155 158 151 139 127 119 116 115 111 107 100 95 95 97 95 92 92 91 95 104 106 105 108 109 106 105 106 108 108 105 106 106 102 96 91 86 86 88 89 91 91 88 87 89 93 106 117 124 129 136 143 134 123 120 121 117 116 108 103 105 116 125 125 119 116 112 100 86 81 76 68 61 58 54 53 51 49 50
61 66 70 76 77 87 96 108 124 130 135 136 141 140 140 136 138 145 150 149 145 139 132 135 140 145 148 155 163 169 173 178 181 184 188 194 198 201 200 197 193 189 189 190 196 195 196 197 197 191 182 178 174 168 164 156 145 137 124 110 95 84 75 66 61 56 52 48 45 43 42 40 38 36 34 32 31 29 28 25 22 20 19 17 15 13 13 11 12 9 9 10 9 7 5 4 4 4 4 3 1 1 0 0 0 0 0 0 0 0 0 0 1 2 3 3 5 7 9 13 17 22 28 34 42 47 53 57 60 63 65 72 76 78 76 77 80 75 76 81 71 65 55 49 41 38 37 32 32 30 28 29 34 37 39 40 43 55 73 78 80 78 71 70 66 60 52 51 54 58 63 64 64 84 109 121 130 134 151 157 161 157 147 134 124 120 122 121 114 105 99 96 98 95 93 93 93 98 108 109 107 110 110 108 110 111 111 110 108 107 105 104 98 94 92 93 94 92 91 87 85 85 89 93 101 111 121 124 125 127 119 116 109 111 111 106 100 108 110 110 117 115 106 98 92 88 76 66 60 56 51 49 44 39 38 37 36
70 70 69 74 72 77 88 100 116 127 136 147 152 151 145 143 143 148 149 146 146 140 138 140 145 151 151 155 160 163 168 174 182 185 189 193 200 202 201 196 191 188 186 186 189 192 194 195 192 187 180 183 180 175 169 163 154 145 133 120 109 99 89 79 71 65 61 55 52 51 50 48 46 43 40 38 36 34 31 28 25 24 23 21 19 18 16 14 15 14 13 14 16 12 9 8 6 6 5 3 2 1 0 0 0 0 0 0 0 0 0 0 1 1 2 3 4 6 8 12 16 20 25 31 39 44 48 50 52 54 59 68 75 80 80 81 85 81 83 82 76 66 58 48 38 33 29 26 25 28 28 33 40 41 42 40 49 63 79 90 88 82 83 78 77 69 55 54 55 53 56 57 64 81 108 124 124 128 141 150 154 148 144 138 128 126 128 133 127 117 109 103 103 103 102 100 100 105 113 116 114 111 111 111 111 113 114 114 113 108 106 106 103 98 97 96 96 95 91 84 82 85 91 97 103 113 114 114 116 108 101 99 92 99 103 101 99 107 114 110 107 101 93 82 75 73 63 52 50 44 40 39 36 31 28 27 26
73 71 70 73 71 71 79 89 105 123 141 154 160 158 154 151 153 154 154 149 147 142 142 141 145 152 154 157 162 165 168 173 179 182 185 191 198 200 202 197 190 185 181 179 181 187 192 193 190 186 183 187 186 181 175 168 159 154 144 133 120 113 105 91 80 74 71 66 63 62 59 56 53 50 47 44 41 39 35 31 28 27 25 24 22 21 19 18 16 17 19 21 22 18 14 10 7 8 8 5 3 2 1 1 1 1 0 0 0 0 0 0 1 1 2 2 4 6 8 10 14 19 23 29 34 40 44 45 47 50 54 65 76 80 83 85 89 90 92 84 75 63 55 45 33 30 27 28 27 29 33 41 49 49 53 49 58 69 79 94 93 88 90 85 74 62 59 55 52 55 61 66 77 89 103 121 127 138 143 145 146 141 135 132 130 134 140 144 138 127 119 113 110 108 110 110 111 111 115 119 117 112 112 114 114 112 114 116 114 112 112 111 109 105 102 101 97 93 89 87 84 84 88 95 101 105 102 101 105 101 92 85 82 85 89 92 98 106 106 99 93 92 80 65 59 57 49 42 40 34 30 30 28 25 21 18 17
76 78 77 73 71 71 81 90 106 123 143 153 166 169 170 167 163 156 155 152 149 142 145 146 150 154 156 157 163 166 166 168 174 179 184 189 194 198 200 199 193 190 186 185 184 187 191 192 192 190 190 192 189 184 180 177 168 159 150 141 132 124 118 105 93 85 80 75 73 69 67 63 60 57 53 48 45 42 39 36 33 31 29 26 23 22 21 18 18 22 25 27 26 24 17 12 11 13 11 8 5 3 2 2 2 2 1 0 0 0 0 1 1 1 2 3 4 5 7 10 13 18 22 27 31 37 40 42 43 46 52 63 73 78 86 91 97 102 105 93 83 74 64 49 38 40 37 34 31 36 44 54 61 59 63 58 65 73 80 97 100 88 84 78 68 62 62 58 56 57 66 81 88 96 105 121 133 142 144 139 137 139 136 131 134 138 143 144 141 135 127 120 116 113 115 117 118 118 119 121 118 114 115 116 119 115 115 115 115 118 118 118 118 113 108 104 99 93 90 90 85 85 88 95 95 97 99 99 99 95 91 77 76 80 78 80 88 93 92 85 78 73 65 54 49 45 36 30 27 25 22 20 20 18 16 14 13
74 75 74 77 74 75 84 96 109 127 144 161 176 180 173 174 172 162 157 155 146 143 145 151 158 162 159 157 162 165 165 164 170 177 179 185 191 196 199 199 196 193 193 191 188 188 190 192 195 195 195 194 192 188 185 181 175 166 157 148 139 132 125 117 108 99 90 86 82 77 73 70 67 63 59 54 49 46 43 41 38 36 32 29 25 23 21 20 22 25 27 29 27 26 20 14 15 14 13 11 7 4 4 3 2 2 1 1 0 0 1 1 2 2 2 3 4 5 7 9 12 16 20 25 28 33 38 38 40 43 51 65 71 76 84 92 104 110 112 103 92 85 77 65 56 51 46 44 40 43 50 61 72 70 72 67 71 85 94 93 96 87 77 70 66 63 66 57 55 59 79 97 101 106 111 126 138 145 144 133 129 133 136 135 139 141 141 140 142 141 136 128 123 120 120 120 122 120 121 122 121 118 118 119 119 116 116 119 121 120 121 123 123 122 116 108 103 97 92 92 93 90 92 93 92 93 94 97 94 92 88 78 75 73 70 66 70 75 72 70 64 57 50 44 39 33 25 20 17 15 14 13 12 10 10 9 9
70 73 73 76 72 76 88 99 113 133 154 168 179 183 172 170 172 168 164 157 149 150 151 159 162 164 162 160 159 158 160 162 169 174 178 183 188 194 195 195 194 192 194 193 191 191 191 190 193 195 197 197 196 193 189 184 181 171 162 155 145 141 135 129 120 110 102 98 91 84 79 77 74 70 65 60 55 52 49 46 43 39 36 33 31 28 25 25 24 27 31 32 28 24 21 17 15 15 16 11 8 6 5 4 3 2 2 1 1 1 1 2 2 2 2 3 4 5 6 8 11 14 18 22 28 31 34 37 41 45 52 64 70 75 81 92 103 110 110 102 94 93 87 75 68 62 59 55 51 55 61 73 82 80 82 80 84 99 103 93 89 86 79 71 66 62 67 61 60 69 92 105 114 122 125 132 140 144 138 130 122 128 136 138 144 142 143 143 145 143 139 134 130 127 126 125 124 123 123 122 121 119 119 120 121 120 122 121 124 124 126 126 128 127 124 115 106 100 96 95 96 92 91 91 90 90 89 89 84 79 76 70 66 62 60 56 56 58 58 56 51 45 40 37 31 23 17 13 10 9 8 7 6 6 6 5 5
68 68 70 71 72 82 92 103 120 139 155 166 175 183 180 173 170 174 169 158 156 153 151 163 170 172 170 165 157 155 159 164 169 171 178 183 187 190 191 192 192 192 195 195 195 196 197 194 195 197 199 197 197 195 192 188 188 181 171 164 154 147 140 134 125 117 110 104 99 92 88 84 81 76 71 66 62 58 55 51 47 44 41 38 36 34 33 32 32 34 33 30 28 23 21 19 18 19 17 14 9 8 7 6 4 3 2 2 2 2 2 2 2 2 3 3 3 4 5 7 9 12 16 21 25 29 31 35 43 47 53 63 72 79 86 92 99 108 108 100 97 97 95 84 77 73 70 68 65 63 62 74 86 87 91 90 91 100 104 101 96 83 73 69 71 69 74 73 71 81 94 110 122 127 129 136 142 145 130 125 125 134 143 146 150 148 146 146 146 144 141 138 135 132 130 129 128 126 126 126 124 121 119 119 121 125 130 130 129 132 131 125 130 132 126 120 109 98 96 94 93 90 90 92 89 85 85 83 74 68 64 63 59 56 56 55 52 50 44 39 37 32 27 27 22 17 13 9 7 5 4 3 3 3 2 2 1
62 64 65 67 77 81 90 106 122 144 160 165 170 182 185 178 169 169 165 161 160 154 157 171 175 175 175 170 157 151 156 162 164 169 175 181 185 187 189 191 191 193 196 197 198 200 200 200 199 199 201 200 200 197 196 195 193 189 182 175 161 151 146 140 133 123 115 111 105 100 96 92 88 83 78 73 69 65 61 56 52 49 46 44 42 41 41 39 38 36 33 30 26 24 24 22 21 21 20 16 12 10 8 7 5 4 4 4 4 4 3 3 3 2 3 3 3 4 5 6 8 11 14 19 23 27 31 36 43 47 52 62 71 80 87 92 98 105 104 100 97 97 98 89 81 81 81 79 73 67 63 70 83 91 93 97 95 99 103 103 97 88 75 72 77 79 78 83 83 88 97 112 128 136 132 134 140 139 134 130 134 143 149 153 157 155 153 150 150 148 145 142 139 137 135 133 131 130 130 130 128 123 122 122 125 131 136 134 134 138 138 133 134 133 130 123 110 98 92 90 92 89 88 90 85 81 79 75 67 61 56 53 52 53 52 50 49 43 36 32 28 24 19 17 15 12 9 6 4 3 2 2 1 1 0 0 0
55 60 66 72 84 95 105 110 126 151 167 172 178 177 181 183 172 166 163 160 157 159 165 170 175 174 174 167 154 152 155 159 165 170 174 177 182 186 188 191 192 194 196 197 199 201 202 202 202 201 201 202 203 200 201 199 195 197 194 186 173 161 154 149 142 131 124 122 118 111 105 100 95 90 84 80 76 71 66 61 57 53 49 47 47 46 46 45 41 35 32 31 29 28 28 25 24 22 21 19 17 13 9 7 6 4 4 5 5 5 5 3 3 3 3 3 3 3 4 6 7 10 13 17 22 26 31 36 42 46 51 59 68 79 84 88 95 100 97 99 97 95 96 89 79 79 79 82 82 78 71 75 80 85 84 87 86 92 100 98 91 88 78 75 75 77 82 88 89 91 104 126 137 143 141 134 134 139 140 134 140 149 155 160 164 164 161 156 153 153 151 148 144 142 139 136 133 133 133 132 130 127 125 128 132 131 136 140 140 143 145 140 137 137 133 124 113 102 97 91 90 85 84 87 84 80 75 64 56 51 49 45 45 45 45 46 45 38 31 28 23 19 15 13 10 9 7 5 3 2 1 1 1 0 0 0 0
49 57 67 75 95 116 121 124 141 156 168 175 176 174 173 178 172 164 158 156 154 157 170 171 171 174 170 160 152 153 157 162 165 169 171 174 178 183 187 189 191 194 197 198 200 202 202 202 202 201 200 201 204 203 203 199 198 199 201 194 184 172 168 164 154 143 137 135 131 124 116 109 103 96 91 87 82 77 71 66 62 57 52 50 49 47 45 47 44 38 34 34 33 32 31 29 27 26 24 22 20 16 12 8 6 5 5 6 7 6 5 4 3 3 3 3 3 4 4 6 7 9 12 16 21 25 30 36 41 46 53 59 66 74 78 84 91 95 94 99 98 97 94 92 84 82 81 82 88 84 72 76 79 81 76 76 80 83 96 95 87 79 78 73 76 84 85 84 87 95 115 133 143 142 141 140 138 143 143 140 142 153 159 167 170 170 166 162 160 159 157 153 148 146 142 139 135 134 133 131 128 127 126 130 133 132 137 141 144 143 144 143 135 134 136 127 117 107 102 95 90 83 82 80 77 76 70 59 48 43 42 41 40 39 41 41 42 35 29 27 23 19 15 11 8 7 6 4 2 1 1 1 0 0 0 0 0
49 60 72 82 104 125 140 152 161 168 171 174 170 164 162 170 169 161 158 156 159 159 168 172 169 168 162 155 153 156 160 164 167 171 172 173 175 179 183 186 190 192 195 197 198 200 201 201 201 201 200 202 206 205 204 202 200 202 205 203 193 183 176 170 163 162 154 150 146 139 129 120 112 104 98 93 88 82 76 70 64 59 55 51 48 46 47 48 47 43 40 39 37 34 34 33 33 32 29 26 23 19 15 10 7 7 7 7 7 6 5 5 4 3 3 3 3 4 5 6 8 10 12 16 20 25 30 36 43 49 55 61 67 72 76 84 89 89 91 95 95 100 100 98 92 86 90 87 91 88 78 78 78 75 73 72 74 78 85 88 83 76 76 73 76 86 83 82 93 106 122 137 146 143 144 146 147 146 149 149 153 163 168 174 179 178 174 170 167 165 162 157 152 149 146 142 138 135 133 131 128 126 126 127 131 134 136 140 142 142 143 141 135 130 134 132 122 110 103 97 90 84 82 77 70 69 66 56 45 38 37 38 39 39 41 42 40 33 29 27 23 18 14 11 8 6 4 3 1 1 1 0 0 0 0 0 0
60 73 87 97 113 130 152 170 177 179 181 178 163 158 158 165 168 161 156 154 161 162 166 171 170 167 160 156 157 157 158 163 167 170 171 172 173 175 177 180 185 188 190 192 195 197 198 198 199 200 200 203 208 206 204 203 200 201 204 203 199 197 188 181 175 177 173 168 163 156 145 132 121 114 107 101 95 87 81 74 66 61 56 53 49 48 50 49 47 46 44 41 40 41 40 38 36 37 34 29 25 21 17 14 11 10 9 9 8 7 6 5 4 4 3 3 4 4 5 7 9 11 13 16 20 25 30 36 44 51 57 62 68 74 79 84 89 87 88 91 91 94 100 105 101 91 93 94 95 87 82 83 83 75 75 71 67 70 72 76 73 71 74 70 71 84 86 88 102 120 127 138 149 148 145 146 150 155 157 155 161 171 176 178 184 185 181 177 174 170 167 162 158 154 150 146 142 138 134 132 130 129 128 127 130 134 135 137 139 141 139 139 140 136 134 130 122 111 106 98 92 88 86 79 70 61 58 49 42 37 36 38 43 41 41 43 40 34 30 26 22 19 16 12 8 5 3 2 1 1 1 0 0 0 0 0 0
80 91 96 109 119 130 145 170 179 186 191 183 170 159 162 162 156 159 158 162 172 171 170 170 165 161 156 154 156 155 153 159 164 166 170 171 172 171 172 175 178 181 184 187 191 193 194 194 195 197 199 202 205 204 200 199 198 198 201 203 202 202 197 189 189 190 187 183 176 168 154 140 129 120 113 107 101 93 86 78 70 63 58 54 50 50 53 50 48 47 46 45 44 44 43 41 39 40 37 33 28 25 21 18 15 13 11 10 9 8 7 6 5 4 4 4 5 5 6 8 10 12 15 18 21 26 31 38 45 52 58 64 71 77 82 86 89 88 89 92 89 91 99 108 109 103 104 106 93 83 88 89 90 84 81 72 68 65 67 70 67 67 69 65 69 81 87 94 112 126 135 140 148 148 150 151 160 164 162 163 169 180 184 186 189 190 186 184 180 175 171 167 163 158 153 149 145 140 136 134 131 130 130 131 130 133 137 137 138 137 135 138 141 139 135 131 121 115 106 97 94 89 86 75 66 59 56 48 39 36 37 41 46 43 42 44 42 37 31 27 22 18 14 11 7 4 2 2 2 2 1 0 0 0 0 0 0
86 92 95 109 116 125 139 161 167 176 193 187 174 162 159 153 153 158 166 173 179 178 172 167 166 161 155 152 153 154 151 156 161 164 168 168 169 170 170 170 171 175 178 181 185 187 189 189 190 195 199 200 200 200 196 196 197 199 200 200 201 205 202 196 199 202 197 190 183 174 163 150 138 127 119 111 105 98 90 81 75 67 60 55 50 49 52 51 47 47 48 49 49 47 45 44 43 43 40 37 32 27 24 21 18 15 13 12 11 10 8 7 6 6 5 5 5 6 7 9 11 14 16 19 23 27 33 39 46 53 60 67 74 80 84 87 90 91 92 93 89 88 94 107 119 119 115 114 99 89 93 94 93 86 81 75 70 71 69 68 72 71 64 65 73 83 92 104 122 129 136 142 150 153 158 163 173 177 174 174 180 189 193 198 197 193 192 189 185 180 174 170 167 162 157 152 148 142 138 134 132 132 131 129 128 132 135 136 136 135 133 134 138 142 139 133 123 113 103 95 94 90 80 70 65 59 53 46 41 39 40 43 45 45 45 44 41 36 31 25 20 16 13 10 6 4 3 3 2 1 1 0 0 0 0 0 0
87 89 88 101 109 120 132 153 162 175 184 179 173 169 163 158 163 164 170 170 171 172 167 164 164 161 159 159 158 158 154 155 160 166 167 166 166 167 168 166 167 169 170 173 180 182 183 185 186 192 196 196 196 198 193 194 198 200 202 205 208 210 205 202 208 209 207 199 192 183 174 160 147 135 128 120 112 103 95 86 79 71 65 58 52 50 50 49 46 46 47 50 52 51 49 48 47 46 44 40 36 31 28 25 22 19 17 16 14 12 10 9 8 7 7 7 7 7 8 10 12 15 18 21 24 29 34 41 48 55 61 69 76 82 84 87 91 92 91 91 87 91 94 105 115 120 118 117 106 98 102 100 96 89 88 81 74 79 81 74 70 75 63 62 75 86 96 105 115 125 132 140 152 161 170 177 187 190 190 192 196 201 206 205 202 198 196 193 189 183 176 171 169 164 159 153 148 142 138 134 132 130 126 124 125 127 128 131 132 133 132 134 135 134 134 127 117 110 105 100 93 85 73 66 60 57 49 47 44 40 42 45 47 45 45 43 41 37 30 23 19 16 13 10 8 6 4 3 2 1 1 0 0 0 0 0 0
78 81 84 95 103 115 132 148 156 173 180 177 168 167 163 165 170 176 173 164 168 167 167 163 159 161 159 160 160 159 156 156 160 164 166 166 165 165 164 162 163 165 163 167 174 174 175 179 181 186 193 192 194 192 191 193 199 204 210 211 213 210 206 207 215 217 215 206 199 192 180 167 154 142 134 127 119 110 101 92 84 75 68 60 53 50 48 48 47 47 49 53 56 56 55 52 51 49 46 43 38 34 31 29 27 24 22 20 17 15 13 11 10 9 9 8 8 9 10 11 13 16 19 22 26 31 37 43 50 58 64 71 78 83 86 88 90 92 90 87 87 93 100 104 110 112 113 116 115 107 106 102 100 94 95 92 81 85 86 72 64 66 65 64 68 78 93 103 109 121 132 140 155 164 178 191 196 199 204 207 210 214 213 209 204 200 198 196 192 187 180 174 171 167 161 154 149 143 138 134 131 127 124 122 121 123 125 126 127 132 133 132 130 129 127 124 115 114 110 105 95 83 74 64 58 55 50 48 45 42 44 49 49 47 43 43 42 38 33 26 20 16 13 10 9 7 5 3 3 2 1 0 0 0 0 0 0
63 74 80 90 105 115 126 134 141 161 170 169 167 165 170 181 182 182 176 171 172 167 164 160 155 155 154 158 156 154 156 160 160 163 163 166 164 162 162 163 160 155 154 161 167 168 171 175 177 181 188 190 190 186 184 188 197 205 212 212 212 209 208 212 217 218 213 205 201 195 184 173 160 150 141 133 126 118 108 97 88 78 69 61 56 52 49 49 49 51 54 56 58 60 60 58 54 51 50 46 42 39 35 33 31 29 26 23 20 18 15 14 12 11 11 10 10 11 12 13 15 18 22 25 29 34 39 45 53 61 68 74 80 85 88 91 93 94 92 89 89 96 101 101 106 107 111 113 117 114 106 97 99 96 95 92 85 85 85 75 68 66 67 64 69 82 90 104 117 129 139 145 156 166 182 194 195 200 210 217 220 219 214 210 207 204 201 198 196 190 183 178 173 169 162 154 148 143 138 133 129 125 123 122 121 120 122 122 123 127 128 127 123 121 119 119 114 110 106 104 97 87 74 64 62 58 51 46 46 48 51 52 50 48 44 43 42 39 33 28 21 17 13 11 10 8 6 4 3 1 1 1 0 0 0 0 0
54 61 73 86 103 110 116 125 136 156 166 159 159 161 176 183 182 175 172 174 168 161 155 158 158 155 154 157 155 155 155 162 162 163 161 164 161 156 154 155 151 145 147 153 159 165 166 168 173 178 180 183 183 183 181 178 189 198 205 209 211 210 212 211 210 211 210 206 201 194 185 175 163 154 147 140 133 125 114 104 94 82 72 63 58 55 53 52 52 55 58 60 61 63 63 61 58 54 52 50 47 44 41 38 35 33 30 26 23 21 18 16 15 14 13 13 13 13 15 16 18 21 24 28 32 37 42 49 56 64 71 78 84 88 91 93 94 96 95 91 91 96 99 100 102 101 104 112 118 114 110 99 100 98 87 85 93 89 83 83 73 72 70 70 78 85 96 112 124 133 141 146 156 169 184 193 192 198 209 219 222 220 215 213 209 207 205 203 199 193 187 181 176 170 163 155 148 143 137 132 128 125 123 122 121 120 120 123 123 123 123 119 114 113 113 113 106 100 97 98 93 87 76 66 61 56 50 48 49 53 56 53 52 51 50 43 37 36 33 30 24 20 17 13 11 8 6 4 3 1 1 1 0 0 0 0 0
50 54 66 84 107 105 109 124 138 149 159 161 155 163 171 178 179 173 173 174 165 155 149 147 156 158 156 156 156 154 154 156 158 160 155 156 154 148 140 142 141 139 141 147 153 159 160 163 168 174 177 177 176 174 175 172 181 189 197 205 211 214 215 212 206 205 206 205 199 192 186 177 167 160 152 145 138 131 121 111 99 86 76 66 61 59 58 56 55 57 60 62 63 65 65 62 60 58 56 54 52 49 46 43 40 37 34 30 28 25 22 20 18 17 16 16 16 16 18 20 22 24 28 32 36 41 47 53 59 67 74 81 87 92 95 97 97 98 100 97 97 96 98 99 99 99 99 108 120 123 120 113 109 97 90 88 93 91 88 84 79 73 76 78 84 92 102 118 131 140 146 153 160 173 182 187 191 198 208 218 220 218 217 214 211 210 209 206 201 196 190 185 178 171 165 157 151 143 137 132 127 125 123 122 121 120 121 124 123 119 118 113 108 103 103 102 95 89 87 88 87 82 73 65 58 52 49 49 48 52 56 57 58 57 52 45 38 32 32 32 29 24 20 16 13 10 7 5 3 2 1 1 1 1 0 0 0
53 59 71 91 105 105 113 123 138 146 155 166 164 168 168 168 167 160 162 162 155 145 144 146 152 156 158 156 156 156 155 152 150 151 146 145 144 137 132 131 128 126 131 139 146 153 152 154 158 165 167 166 166 164 165 172 185 193 200 210 213 214 215 214 209 207 204 204 199 192 186 178 170 164 157 150 143 135 126 115 103 90 79 71 66 63 62 60 60 60 61 63 64 64 64 62 62 61 59 58 56 53 50 47 44 42 39 35 32 29 27 24 22 21 20 20 20 20 21 23 25 28 32 37 42 47 53 59 65 73 81 86 91 96 99 100 102 103 103 102 101 100 99 98 97 99 104 112 121 127 128 123 111 97 91 94 94 88 81 75 71 69 80 90 96 103 114 129 142 153 154 157 167 182 187 187 191 197 205 215 219 218 217 216 214 212 210 207 203 198 193 187 179 173 167 159 153 144 137 132 127 125 122 121 121 121 122 123 122 117 115 111 104 96 96 93 85 80 77 75 75 70 67 60 51 47 47 47 49 53 54 57 56 56 50 45 40 33 32 34 35 29 23 19 16 13 9 6 4 3 3 3 3 2 0 0 0
67 72 79 98 108 111 115 126 134 140 148 159 158 159 161 156 157 150 150 147 148 146 145 150 158 160 161 158 157 154 151 147 142 139 140 139 141 135 127 125 120 119 127 133 137 144 145 142 148 155 157 157 162 164 170 178 190 195 201 208 213 212 215 215 213 209 206 205 200 196 190 182 174 169 162 156 149 140 131 120 109 95 84 76 72 69 67 65 64 63 63 64 64 65 65 65 64 64 63 62 60 57 55 52 49 45 42 38 35 33 32 30 27 26 25 24 24 24 25 27 28 31 36 41 47 52 59 66 73 81 87 92 96 100 103 105 106 107 107 107 105 104 100 101 103 104 113 123 128 131 130 127 119 109 99 95 90 85 76 75 72 74 81 95 103 111 121 131 145 159 157 164 177 192 195 194 196 199 200 209 214 217 218 217 217 214 210 207 203 198 193 186 179 172 167 161 154 146 136 131 127 124 122 122 122 123 125 123 118 116 113 108 103 95 92 83 74 69 64 65 66 63 61 55 49 46 44 45 49 53 56 58 58 57 53 47 44 38 35 35 37 34 28 23 19 16 11 8 6 5 5 4 3 2 1 0 0
80 88 99 108 106 110 124 137 136 135 140 147 153 160 158 160 157 150 141 143 143 146 145 148 154 154 156 151 151 151 150 144 139 135 139 138 136 132 125 124 120 119 126 129 128 135 137 141 146 147 147 152 161 169 176 183 189 191 196 206 209 210 213 212 213 211 207 205 202 197 192 186 179 173 167 161 154 146 137 126 114 102 92 83 79 75 72 70 68 67 67 67 68 68 68 68 68 68 67 66 64 62 59 56 53 49 46 42 40 38 36 34 32 31 29 28 27 27 29 30 32 36 41 46 51 57 64 71 79 87 93 98 101 104 107 109 110 111 111 112 111 110 107 107 110 113 124 129 132 135 131 134 132 125 117 103 90 82 80 81 80 81 86 99 111 119 128 136 148 163 168 174 185 192 194 194 199 200 198 201 207 212 216 216 217 214 211 207 202 196 190 185 178 173 167 161 153 145 137 131 127 124 123 121 122 124 124 122 117 113 112 107 103 94 85 76 70 64 58 58 59 58 56 53 50 45 43 44 47 51 56 60 61 59 55 49 47 44 40 38 37 37 32 23 19 17 14 10 7 6 5 4 3 2 1 0 0
92 107 114 119 121 121 137 148 145 140 137 146 163 170 164 166 153 142 129 136 135 138 140 144 144 143 148 148 149 147 149 143 137 135 137 137 132 129 121 118 111 113 123 128 125 130 137 145 146 145 143 151 160 169 174 182 187 189 190 199 204 205 207 207 209 209 208 206 203 198 194 189 183 177 171 165 158 151 142 131 120 111 101 93 88 83 78 76 74 72 72 72 72 72 73 73 72 72 71 70 68 65 62 60 56 53 50 47 44 41 40 38 36 34 32 31 30 31 32 34 37 41 46 51 58 64 70 76 84 92 97 103 107 110 112 114 115 116 116 117 116 115 114 118 123 127 131 137 142 140 132 135 137 133 125 109 97 95 90 87 88 89 95 105 112 116 128 141 154 165 172 174 187 188 186 185 192 196 193 193 202 206 207 209 211 212 210 205 201 195 189 183 177 172 165 160 154 145 137 131 128 125 123 120 120 121 121 118 112 108 107 104 99 90 78 70 64 60 54 53 56 56 54 51 46 44 43 43 46 52 55 58 59 59 56 51 47 45 42 41 39 37 35 25 19 18 17 13 9 8 7 5 5 3 1 0 0
101 120 129 134 132 135 147 157 164 155 152 166 168 170 164 162 149 132 121 130 126 127 131 135 136 142 141 144 149 151 153 148 141 136 140 137 133 127 117 112 108 111 115 124 123 127 136 143 152 151 151 146 152 162 170 182 185 184 186 188 195 202 203 204 206 207 207 207 204 200 196 191 186 181 176 171 165 157 148 138 128 119 111 104 97 90 86 83 80 78 77 77 77 78 78 78 78 77 76 75 71 69 66 64 60 57 54 51 48 45 44 42 39 37 35 34 33 34 35 37 41 46 51 58 65 72 75 82 89 96 101 108 112 115 118 119 121 121 122 124 122 119 120 124 129 135 138 144 145 144 137 142 142 144 136 122 111 105 98 97 93 96 108 119 118 123 133 147 159 168 173 175 182 185 185 182 189 191 193 192 197 203 201 202 206 208 207 202 197 192 187 181 176 169 163 157 152 145 137 131 127 124 121 119 119 118 118 112 106 103 103 102 94 86 76 66 61 56 53 55 56 56 52 46 43 41 40 40 45 50 52 54 53 54 52 50 48 43 41 39 40 38 35 27 21 19 19 15 12 9 7 6 5 4 2 1 0
116 127 134 142 144 150 161 165 170 174 175 171 164 160 154 155 152 138 125 127 126 119 127 137 139 141 141 144 153 159 156 148 147 145 146 143 139 129 117 109 110 112 110 117 119 121 134 143 152 155 156 150 144 152 164 175 181 180 181 183 188 197 199 201 203 206 206 208 206 203 199 194 190 185 181 176 171 164 155 146 137 129 121 113 105 99 94 90 87 85 84 84 83 84 84 84 83 82 81 80 76 73 71 68 65 61 58 55 52 49 46 44 42 40 38 36 36 37 38 40 44 48 54 63 69 74 78 86 93 99 105 112 117 121 123 125 126 127 128 129 128 126 126 129 131 135 143 148 150 147 144 150 149 152 148 131 120 116 107 107 102 101 114 128 134 135 147 155 161 160 166 171 177 179 185 185 186 186 190 188 192 198 197 199 203 204 202 198 193 189 185 179 173 167 161 153 147 142 135 129 123 119 118 118 117 117 117 112 105 100 101 97 88 84 77 67 61 56 54 54 53 52 50 45 42 39 37 38 42 45 49 50 49 49 50 50 46 42 42 39 38 39 35 27 23 22 20 16 14 11 7 6 5 5 3 2 1
132 142 145 153 155 169 183 182 172 177 177 163 158 160 157 153 160 149 134 125 126 121 127 130 131 132 140 150 160 164 162 156 153 153 145 137 135 128 118 106 105 105 103 113 118 119 128 139 145 152 152 147 147 155 161 166 172 169 175 182 187 191 194 200 202 203 203 206 207 205 202 197 194 190 186 181 176 170 162 154 146 138 129 121 114 107 102 98 94 92 90 90 90 90 91 91 90 88 85 82 80 78 76 73 69 66 62 59 55 52 50 48 45 42 40 39 39 39 40 42 45 50 55 64 71 77 81 87 94 101 108 116 121 126 129 132 132 132 132 135 138 138 137 137 138 139 143 150 158 154 149 149 144 147 146 140 132 130 121 118 108 100 108 119 137 143 155 161 164 157 159 163 170 173 181 181 178 181 185 183 186 191 192 193 196 198 196 193 188 184 180 175 170 164 158 150 143 137 130 124 120 116 115 117 117 117 114 111 110 102 99 96 87 83 76 65 63 59 57 56 52 48 47 41 38 37 35 35 39 42 46 46 48 47 50 48 46 43 41 38 37 36 35 28 25 24 20 17 16 12 9 6 5 5 3 3 2
142 152 157 159 169 179 183 183 179 177 169 160 154 152 147 147 156 156 144 136 129 130 130 132 128 136 145 157 168 170 163 162 159 157 146 135 127 124 116 107 103 102 103 112 115 111 120 128 132 138 144 137 138 144 153 161 165 163 169 174 177 179 184 191 199 201 203 206 209 208 206 200 197 193 190 187 181 175 168 161 153 145 137 129 122 115 110 105 102 99 97 97 96 97 97 97 96 92 89 85 84 83 81 78 74 70 65 62 58 55 52 50 48 45 42 41 40 41 42 44 47 51 57 64 70 76 83 90 97 105 113 120 126 131 135 137 138 138 137 139 145 147 146 142 141 139 143 153 158 156 153 145 143 148 149 144 141 134 127 115 114 105 101 111 128 145 162 176 175 165 158 162 166 173 180 180 181 183 183 181 183 186 189 189 189 191 190 188 184 181 175 169 163 159 154 147 138 131 124 120 117 115 114 115 115 114 112 109 108 103 97 88 86 82 78 71 65 63 61 58 52 48 48 42 36 36 34 35 37 39 42 44 47 47 48 49 47 44 39 37 36 37 36 32 28 27 23 19 17 14 11 8 6 5 4 4 3
143 147 153 159 170 182 185 189 188 185 173 167 156 144 139 150 154 154 155 153 143 145 137 134 140 148 159 171 173 167 161 157 149 144 136 127 121 121 113 110 109 103 105 111 107 103 108 117 125 132 138 133 127 130 139 146 152 154 158 159 159 164 176 182 192 201 206 209 213 211 207 202 199 196 193 190 185 180 173 166 158 151 144 137 129 123 118 113 109 106 104 103 103 103 103 101 101 97 93 88 87 87 85 82 78 74 69 66 61 58 55 52 50 47 44 42 41 42 44 45 47 52 57 63 69 75 83 91 100 109 117 124 130 135 138 141 142 142 143 146 149 148 147 145 144 143 148 151 155 152 152 148 148 149 145 142 140 130 126 117 117 110 103 111 122 142 166 177 174 175 174 179 180 180 177 182 186 183 181 180 182 184 184 185 185 185 184 185 181 175 169 163 156 151 147 142 136 129 123 118 116 115 112 113 112 110 108 106 106 103 92 83 84 83 82 74 69 66 64 59 52 50 48 42 36 33 34 36 36 37 38 40 44 47 48 50 46 41 37 37 37 37 37 34 29 28 25 21 18 15 13 12 9 6 6 6 5
143 144 144 153 167 184 194 196 187 183 182 181 171 151 148 149 152 153 156 157 146 144 140 138 146 149 169 182 175 168 157 147 142 129 123 113 107 107 103 108 106 101 105 104 96 97 101 103 113 116 119 116 113 120 126 128 132 129 137 140 142 153 165 178 186 198 202 205 211 211 207 201 198 195 194 192 189 183 177 170 163 156 149 143 136 131 126 121 116 113 111 109 108 107 106 104 103 100 97 94 91 90 88 85 82 78 73 69 64 60 56 54 52 49 45 43 42 42 44 46 48 52 57 63 69 75 84 92 101 111 119 126 132 137 141 143 145 146 148 154 152 149 145 145 144 143 147 147 154 152 151 145 147 147 142 137 138 131 126 120 122 111 104 111 122 142 165 174 182 187 187 189 186 184 182 183 186 184 179 180 179 181 179 178 177 179 180 182 176 169 164 158 151 145 141 137 132 126 121 116 115 111 108 109 109 109 104 101 101 103 92 81 78 80 86 80 75 73 70 65 56 50 45 40 33 28 31 33 33 35 36 38 43 46 44 47 48 45 42 41 38 36 35 34 31 29 27 24 23 19 16 15 12 9 10 11 10
141 145 145 152 174 194 203 204 194 187 191 189 168 151 152 153 155 147 153 155 153 149 149 144 151 163 185 187 181 171 158 146 139 128 112 102 96 97 104 107 105 108 109 106 102 96 96 99 105 98 96 97 103 107 112 113 113 111 119 127 136 149 161 173 186 192 195 201 206 209 205 200 198 195 194 195 193 188 181 175 167 160 153 148 142 138 134 129 124 120 117 114 112 111 108 106 104 103 100 98 95 93 92 89 85 81 76 72 67 62 58 55 52 49 46 44 44 43 43 45 48 52 56 61 67 75 84 93 102 112 120 128 134 139 142 144 146 151 152 153 154 151 144 143 144 140 142 145 148 147 147 148 150 152 142 141 137 135 132 124 119 110 110 117 130 142 159 174 186 194 200 197 189 186 187 185 184 186 182 180 180 179 176 174 171 172 173 174 170 164 157 151 143 137 135 133 129 122 118 114 111 106 104 103 105 104 98 95 96 96 92 79 77 78 83 83 80 76 72 67 57 54 48 40 34 28 27 30 30 31 33 38 42 46 44 44 47 47 47 42 36 34 35 35 33 29 26 26 26 22 18 17 15 12 13 14 12
141 150 158 168 182 198 205 206 210 209 205 195 168 147 152 160 160 150 157 149 141 138 142 143 152 173 192 192 187 181 171 155 139 130 116 100 91 92 99 104 107 108 107 111 112 105 98 94 90 85 81 84 85 91 103 109 114 114 122 129 134 148 160 169 177 180 188 196 198 202 199 198 199 196 195 196 195 191 185 178 171 163 157 152 147 143 139 135 130 125 122 120 117 114 110 108 107 106 104 103 101 98 95 91 87 83 78 75 70 65 60 56 52 48 47 45 44 43 43 45 47 50 55 60 66 75 84 93 102 111 121 129 136 140 143 145 147 151 153 150 150 146 142 141 139 133 132 136 139 137 137 142 150 153 143 138 133 131 132 128 119 105 107 119 134 146 150 165 181 196 199 193 193 194 189 184 179 178 178 179 175 172 170 170 167 166 168 169 165 157 150 145 139 133 131 130 125 119 116 113 106 100 101 100 100 98 94 91 89 87 85 74 75 81 84 82 76 73 71 66 58 56 51 41 34 29 26 29 30 31 31 37 42 45 44 42 45 45 43 40 34 33 35 34 31 28 26 25 25 24 19 17 15 14 15 14 12
153 160 164 180 199 207 214 218 227 221 212 204 180 166 165 170 165 154 152 144 132 134 130 136 151 184 196 198 189 184 173 160 143 127 117 108 92 90 96 102 102 108 100 104 105 103 95 94 86 82 74 71 71 85 92 107 114 114 115 121 127 140 148 160 163 171 181 186 188 187 190 191 193 192 192 192 193 191 186 181 175 167 161 157 152 147 143 139 134 130 127 125 122 118 113 111 109 107 106 106 104 99 96 91 86 83 78 75 71 67 62 57 52 48 46 45 43 43 43 44 46 49 53 59 65 73 82 92 101 111 120 129 136 141 143 146 149 152 150 145 145 142 144 142 142 142 140 138 136 131 133 140 146 151 141 133 136 132 125 122 110 104 107 115 121 136 145 158 173 186 187 193 193 192 183 176 167 168 170 172 170 168 168 168 167 167 167 165 159 151 148 144 138 133 130 128 123 117 113 109 103 96 93 93 93 90 87 84 82 81 78 73 73 75 81 77 75 72 70 65 60 58 50 42 34 30 28 30 30 31 32 36 40 44 44 40 38 38 38 36 32 31 33 33 29 26 23 24 24 22 18 17 18 19 18 16 16
153 157 155 178 201 209 215 226 225 220 217 214 194 180 172 172 163 149 145 139 132 131 129 128 144 173 194 198 188 175 169 160 144 127 112 105 91 87 90 99 102 104 96 96 102 95 86 82 83 85 80 69 69 79 86 100 112 109 106 116 127 130 139 152 155 161 166 173 176 176 178 182 184 183 185 185 187 186 184 180 176 169 165 161 155 151 146 142 138 133 130 128 124 121 116 114 111 109 108 107 105 99 95 91 86 82 78 74 71 67 64 58 52 48 46 44 43 42 42 43 45 48 52 57 64 72 81 90 100 110 119 128 135 141 145 147 150 153 151 148 145 143 147 147 150 151 148 139 137 134 139 147 147 148 145 137 132 130 125 120 109 107 104 103 103 121 138 148 155 161 174 187 188 182 173 169 161 161 163 165 166 166 166 166 166 167 165 163 155 149 147 144 139 136 129 123 118 114 110 104 97 92 88 86 85 85 80 74 73 72 67 70 70 71 73 75 72 67 62 59 56 57 49 43 34 29 29 29 30 32 35 36 38 41 41 38 36 34 34 31 31 31 32 31 28 25 22 24 24 23 20 19 21 23 23 21 20
150 147 148 173 194 209 218 220 215 214 211 212 194 181 170 171 154 140 146 149 144 139 130 123 145 167 179 181 174 166 167 163 151 133 113 105 91 84 87 96 96 94 88 93 104 100 93 83 82 82 79 68 64 71 81 89 100 99 103 117 125 124 136 140 140 149 157 164 161 160 163 169 177 179 180 181 182 182 180 175 173 169 167 166 160 154 149 145 141 136 133 130 126 122 118 115 112 110 109 108 104 98 94 90 85 82 78 74 70 66 62 58 53 48 45 43 42 41 41 42 43 46 51 56 63 70 79 88 98 109 118 127 135 142 147 149 151 153 152 152 150 149 151 147 149 152 152 144 144 145 149 154 159 155 149 134 125 128 122 123 119 117 110 107 102 115 122 127 133 140 156 163 169 165 157 158 154 151 154 158 159 163 165 165 165 165 161 157 151 146 145 141 137 133 127 121 116 109 103 98 90 85 82 81 78 74 68 62 60 60 60 65 68 70 71 75 69 64 58 53 48 48 44 38 31 25 26 28 28 31 35 36 37 39 38 36 33 31 30 28 30 29 28 28 26 24 23 25 26 25 22 19 20 25 27 24 19
144 147 151 161 184 208 217 215 209 200 196 202 196 189 179 172 147 138 139 156 150 146 130 120 130 152 161 166 171 163 162 157 150 133 112 100 90 83 85 89 92 86 88 91 95 96 95 85 84 83 79 66 58 64 70 79 88 99 107 115 120 118 128 129 126 130 141 148 150 147 152 159 169 172 174 174 176 177 175 174 172 173 172 169 163 157 151 147 143 138 134 131 128 122 117 113 111 109 110 106 100 95 91 88 84 81 77 72 68 63 60 56 52 48 45 43 41 40 40 40 42 45 49 54 61 68 76 85 96 106 116 125 134 142 148 152 153 155 156 158 157 157 154 151 150 155 153 152 154 157 159 163 165 157 146 133 124 124 129 129 127 124 120 114 110 110 108 110 115 126 141 145 153 149 147 151 154 152 153 155 156 161 163 163 162 162 158 154 149 146 142 139 136 129 123 117 113 105 98 91 85 78 76 74 73 68 61 57 55 57 56 62 71 73 75 70 65 60 56 52 46 45 40 33 28 25 26 27 28 30 32 34 34 34 33 32 31 29 28 29 30 29 28 25 24 24 23 24 23 23 23 22 23 24 29 27 20
141 148 156 165 185 205 213 213 208 196 187 189 195 188 181 169 157 146 142 155 154 147 135 121 125 134 145 163 173 168 161 155 145 129 112 98 88 79 75 83 86 81 82 87 88 89 92 89 84 81 78 65 55 60 63 68 83 96 99 100 105 108 116 120 123 122 126 132 137 136 139 153 165 170 170 168 167 167 169 173 172 175 174 169 164 158 152 148 144 139 135 132 128 122 118 113 110 109 107 103 97 93 89 86 83 79 75 70 66 63 58 53 51 48 45 42 40 39 38 38 40 43 47 52 59 66 74 83 93 103 114 123 133 140 148 154 156 157 157 160 160 158 156 155 153 154 150 154 158 161 161 164 161 153 147 141 137 138 138 139 133 129 128 121 117 115 103 102 110 122 134 137 138 136 136 143 150 153 152 152 156 159 160 160 160 160 158 152 147 143 137 132 131 123 118 114 109 101 90 83 79 73 72 71 69 61 56 54 54 54 56 63 70 71 72 68 63 59 53 50 46 42 35 31 28 25 23 24 25 27 28 31 32 30 30 30 30 28 27 28 31 31 29 25 23 22 22 22 21 20 21 23 26 25 28 27 19
138 147 155 165 181 197 204 202 199 188 173 164 178 180 186 182 178 166 157 156 150 151 142 131 135 137 150 160 167 164 154 146 140 129 118 106 92 77 65 75 77 81 81 88 92 88 85 87 83 77 81 73 62 62 57 56 71 87 92 93 97 101 104 109 118 116 119 123 129 132 135 148 161 166 167 165 162 161 164 170 173 175 172 168 163 157 152 147 143 138 135 131 127 122 117 112 109 107 104 99 94 91 87 84 82 77 73 68 63 59 55 51 49 46 43 40 38 36 36 36 38 41 45 50 56 63 71 80 90 100 110 120 130 138 146 152 155 157 161 163 161 159 155 154 153 151 144 145 149 157 159 161 158 153 154 152 148 146 144 144 134 131 136 135 126 119 108 102 108 119 129 125 124 122 125 134 140 143 145 148 152 157 161 159 158 156 155 149 145 139 134 131 129 120 113 109 101 92 79 74 72 68 68 67 64 57 54 51 53 51 54 64 72 74 69 63 56 53 49 43 39 33 29 29 25 23 21 20 20 21 23 25 26 26 26 27 29 29 28 28 31 31 29 26 25 24 24 22 23 21 22 25 25 25 30 30 22
129 141 155 161 174 190 191 192 183 174 162 156 168 177 185 175 173 176 169 159 154 151 129 127 132 131 141 143 148 142 137 129 133 127 123 108 89 82 75 71 80 84 84 87 97 89 85 83 82 79 78 78 74 69 63 56 67 81 88 85 87 92 101 105 111 117 122 124 126 131 136 148 154 160 159 156 157 156 156 163 169 171 170 166 161 156 151 146 141 137 134 130 126 120 115 110 106 104 100 95 91 87 84 81 78 74 70 66 61 56 52 51 47 43 40 38 36 34 34 35 37 39 43 47 53 60 68 76 86 96 106 117 126 135 144 151 154 157 160 163 161 158 155 153 152 149 141 139 142 151 157 156 152 150 154 157 153 154 156 152 138 129 139 143 135 125 107 102 102 108 113 116 115 113 119 128 134 137 140 140 144 153 154 155 154 155 153 152 145 138 133 130 126 118 111 103 93 84 75 70 65 65 65 69 63 55 55 52 50 47 50 57 67 71 67 63 56 47 45 39 34 29 28 25 22 20 19 18 17 19 21 22 22 22 22 23 26 31 30 29 33 33 30 27 27 26 26 26 24 24 24 26 26 27 33 33 31
120 135 150 160 175 185 186 190 179 171 163 163 162 169 172 167 171 183 172 164 163 153 129 117 112 111 115 119 120 115 115 108 114 121 120 106 89 85 89 85 87 84 82 86 102 98 91 89 85 81 76 77 80 76 69 64 71 77 84 78 79 88 100 103 103 107 116 120 123 131 140 146 150 153 149 147 153 153 152 157 164 165 165 163 159 155 150 144 139 135 130 127 122 117 112 107 102 98 94 91 87 83 80 77 74 70 66 62 59 54 51 49 46 42 39 36 35 33 33 34 35 38 41 45 50 57 64 73 83 92 103 115 124 132 141 148 153 157 160 162 161 157 152 150 146 145 142 138 138 143 154 156 153 151 154 159 159 157 159 152 137 127 132 137 132 122 111 106 101 106 109 110 110 108 114 124 133 137 139 137 138 144 146 145 146 149 148 149 145 140 135 130 125 117 106 97 87 78 70 66 61 60 63 67 62 55 55 53 48 45 44 46 54 61 58 55 53 47 44 39 33 28 24 21 19 17 17 17 16 17 19 18 17 18 19 20 23 28 30 32 37 37 32 29 28 26 25 25 25 26 28 33 37 39 41 46 43
109 122 142 158 170 175 178 178 174 168 162 170 165 165 157 160 165 179 171 159 156 151 135 120 110 110 107 105 102 108 113 108 112 120 107 97 94 100 95 94 90 88 92 94 100 101 103 103 89 83 78 79 77 72 71 69 70 75 82 78 77 87 94 97 96 104 112 118 126 133 140 140 147 148 143 142 144 148 150 157 163 163 163 160 156 152 147 141 137 132 127 123 119 114 108 102 97 93 89 86 82 79 75 72 69 66 62 59 56 52 50 48 44 40 38 35 34 32 32 33 34 36 39 42 47 53 60 68 79 89 101 113 122 129 137 143 149 153 157 158 159 157 150 145 140 139 136 133 135 139 149 152 153 154 152 154 160 165 168 158 145 135 126 130 126 115 107 109 108 107 105 102 105 106 113 123 131 134 133 129 128 129 132 133 138 144 142 140 138 134 131 128 124 115 103 94 85 74 63 58 57 57 58 61 60 57 54 49 43 43 42 43 49 51 52 52 48 44 40 37 31 26 21 19 17 16 16 16 14 14 14 14 14 15 18 20 22 26 29 33 37 37 31 29 27 28 28 27 27 27 30 38 46 54 54 56 56
111 117 134 152 165 167 170 170 170 166 158 160 158 159 153 152 160 161 167 162 164 156 148 131 121 121 115 105 98 102 110 116 120 122 111 106 107 115 103 101 99 98 99 106 101 107 112 107 97 88 89 84 78 77 81 77 77 74 71 71 73 79 81 88 93 104 119 123 133 143 139 135 139 147 143 140 139 145 152 158 163 163 162 159 153 148 143 138 133 128 123 118 114 108 102 97 91 87 83 80 77 73 70 67 64 61 58 55 52 49 48 46 42 39 37 34 32 31 31 32 33 34 37 40 45 51 57 65 74 86 97 107 117 123 130 136 143 149 152 153 155 153 146 139 135 131 130 129 131 132 140 141 148 154 151 149 157 163 167 158 150 140 124 127 131 115 109 111 100 95 97 88 92 105 108 118 124 127 122 114 111 112 119 126 132 139 139 135 131 127 123 121 120 113 103 93 83 68 58 54 57 54 54 59 58 57 53 47 43 41 42 44 45 44 47 50 46 39 34 32 28 21 17 15 17 17 16 15 15 14 12 13 13 15 17 20 22 25 29 34 36 38 34 29 29 30 32 30 29 30 36 43 54 63 65 60 63
117 125 137 152 161 163 168 173 168 157 146 146 145 145 145 147 150 146 165 173 179 170 164 151 139 132 126 125 112 96 102 114 123 125 120 116 118 116 105 100 94 104 110 112 103 108 119 118 114 104 99 91 89 91 91 85 79 76 66 61 57 63 71 77 91 107 125 130 137 145 141 136 134 141 144 139 138 143 153 158 157 159 160 156 151 146 139 133 129 124 119 114 109 102 96 91 85 81 77 73 70 67 64 61 59 57 54 52 49 45 44 43 39 37 35 33 31 30 30 31 31 32 35 39 44 51 55 61 70 82 93 101 111 117 124 129 136 143 147 148 151 146 139 133 128 125 122 123 121 118 123 127 138 149 148 144 152 158 156 145 136 135 131 132 139 125 120 113 97 86 86 82 84 100 109 113 116 120 112 103 94 96 105 117 126 135 135 129 124 122 121 119 117 112 101 92 82 66 54 50 53 52 53 57 53 51 48 47 41 37 41 42 41 41 41 41 39 34 29 25 21 16 14 14 15 18 17 16 16 14 13 14 14 14 16 20 21 25 30 36 38 40 37 31 29 32 36 34 33 35 46 54 57 61 59 56 60
123 130 141 152 163 169 176 176 177 166 152 148 136 135 143 145 146 136 152 175 187 188 173 160 150 142 148 138 120 108 112 127 132 132 133 140 140 122 104 92 94 98 108 117 113 121 124 121 119 111 100 99 94 101 100 91 75 67 55 51 49 47 56 69 87 102 117 131 139 143 141 130 128 136 137 130 135 142 151 151 153 158 160 155 150 143 134 128 124 118 114 108 102 96 90 84 78 74 70 67 64 61 59 56 54 52 50 48 45 43 41 40 37 35 33 32 30 30 30 30 30 31 34 38 42 50 55 61 70 78 87 93 102 110 117 124 131 138 141 143 143 140 133 123 117 120 120 120 114 108 104 110 121 136 133 132 141 147 144 139 129 123 128 130 135 129 124 101 90 83 78 77 83 99 106 106 114 111 99 92 84 87 98 111 118 127 130 124 119 113 116 116 110 104 96 88 77 68 56 50 50 50 51 50 50 50 48 45 43 38 42 43 43 40 39 36 33 31 25 19 14 12 12 14 15 16 15 15 14 13 13 13 14 14 16 20 22 26 29 34 36 39 38 32 31 33 38 39 38 47 56 64 61 63 56 53 59
124 134 145 152 161 175 177 181 184 171 158 152 134 130 131 144 148 145 151 169 181 193 186 168 165 164 164 143 129 123 128 137 145 144 142 157 156 144 120 105 96 93 101 109 119 125 122 123 123 110 105 106 103 104 101 91 72 66 57 49 47 41 48 65 78 93 103 120 132 134 133 124 118 123 131 134 138 141 148 148 154 160 161 157 149 139 129 122 118 113 107 101 95 89 83 77 72 67 63 60 58 55 53 51 49 47 46 45 43 41 39 37 35 34 32 30 30 29 29 30 30 31 33 37 41 48 54 59 66 75 83 90 98 104 112 118 125 133 135 134 135 134 126 119 115 114 114 113 112 104 95 98 110 125 123 125 131 132 133 135 130 124 123 127 122 126 124 106 93 84 72 73 81 99 103 105 113 110 95 87 82 84 95 103 110 114 118 112 109 109 110 109 105 96 89 82 73 65 57 52 48 50 51 46 48 48 49 48 46 46 47 50 46 40 38 37 34 27 19 14 10 9 10 11 11 13 13 12 12 12 11 12 13 15 18 23 26 27 31 33 37 38 35 33 33 37 43 45 48 56 64 66 70 66 61 58 63
126 132 147 155 166 177 179 178 175 166 166 165 150 140 134 140 143 142 144 166 181 184 185 176 178 176 172 154 142 134 139 142 146 152 158 161 161 155 140 124 111 98 96 101 112 117 126 125 118 111 110 111 108 104 100 93 77 68 63 56 47 41 49 62 73 87 99 113 119 118 120 115 113 118 120 129 139 148 153 149 152 158 158 154 145 135 124 117 111 106 100 95 88 82 76 70 65 61 57 54 52 49 47 46 44 44 43 42 41 39 38 35 33 31 31 30 29 29 29 30 30 32 34 37 41 46 52 58 64 74 83 91 94 101 110 118 122 127 127 125 127 124 116 113 115 112 108 106 110 108 102 103 103 116 120 126 128 134 128 136 146 139 130 133 126 131 125 110 96 91 78 78 81 97 103 106 111 104 93 86 79 78 87 94 103 108 109 104 102 106 104 100 94 87 83 75 65 61 55 48 45 48 50 46 47 48 52 53 50 52 54 51 44 41 36 34 30 23 16 11 8 7 7 8 9 10 11 10 10 10 11 12 13 15 19 24 29 32 33 35 40 41 37 36 33 38 47 51 55 60 68 69 71 69 69 72 73
129 136 149 159 161 166 175 179 168 170 176 169 158 142 137 135 141 139 146 167 175 184 184 184 184 182 177 165 153 157 159 152 155 155 162 162 168 162 154 134 116 103 96 104 116 120 124 125 115 102 101 106 111 103 97 90 80 74 68 61 53 47 48 55 65 80 91 98 109 109 117 117 114 108 114 126 144 153 154 153 154 157 152 149 140 130 120 112 106 100 94 88 81 75 69 63 58 55 51 49 46 44 43 41 41 40 40 40 39 38 37 35 32 30 28 29 29 29 30 30 31 32 34 36 40 45 51 57 64 74 85 90 97 106 115 120 124 127 125 122 124 118 113 110 108 107 105 105 113 112 113 114 114 117 129 141 137 139 138 146 150 151 140 139 137 137 135 122 111 99 98 92 89 98 97 103 101 98 90 80 75 72 78 89 99 102 101 100 97 99 99 92 80 77 74 62 56 53 49 44 43 44 47 48 50 49 53 56 53 52 50 46 40 37 32 31 26 21 15 10 8 5 4 6 7 7 9 9 8 9 10 11 13 16 20 24 29 33 33 36 43 44 42 41 38 39 44 52 60 68 69 74 73 73 76 84 90
132 142 151 158 154 161 173 178 174 174 177 173 154 135 127 125 131 132 139 158 167 185 190 195 188 186 190 181 178 176 172 167 169 164 170 168 169 162 149 130 118 111 106 111 118 116 114 119 115 97 94 97 105 107 101 94 83 77 72 63 56 50 46 49 59 70 79 94 104 105 112 117 110 102 108 125 139 147 147 143 147 148 143 138 132 123 114 106 100 94 87 81 75 68 62 57 53 49 46 43 41 40 39 38 37 37 37 37 38 37 36 34 32 29 27 27 28 29 30 31 33 34 36 38 42 45 50 56 63 74 84 92 99 108 115 119 125 126 124 121 119 112 108 105 104 101 106 113 118 118 119 125 134 126 134 144 145 144 150 145 149 157 160 155 150 156 154 146 131 117 119 111 98 99 94 98 97 92 78 70 69 69 69 78 90 97 99 98 93 89 87 83 69 64 60 51 46 46 43 41 40 39 41 46 52 52 55 55 52 50 44 39 34 32 28 26 22 18 15 10 7 4 3 5 6 6 7 8 8 9 10 11 13 17 21 24 29 32 33 37 44 42 44 44 42 39 45 57 64 70 72 74 73 76 86 94 98
130 141 151 158 153 153 158 163 170 172 168 168 156 139 131 133 139 138 138 151 160 173 180 187 196 198 197 190 192 183 176 174 181 179 181 171 167 157 150 135 124 115 112 120 116 105 103 108 110 103 99 95 95 102 100 99 89 85 81 73 65 57 51 48 55 63 70 86 97 103 110 108 99 94 105 124 135 133 135 137 135 133 129 125 123 115 109 101 94 88 81 75 69 62 56 51 47 43 40 38 36 36 35 35 34 33 33 34 35 35 34 33 32 29 27 26 28 29 31 33 34 36 37 38 41 45 51 57 63 73 81 89 95 106 111 115 120 123 122 120 116 105 99 95 99 103 117 128 130 125 129 140 146 141 143 145 152 158 162 151 150 154 162 158 156 166 159 157 144 133 136 121 102 94 87 88 84 77 69 68 65 67 69 76 84 88 93 91 86 83 79 66 56 51 45 41 40 41 39 38 40 39 40 42 48 48 51 55 54 51 44 37 30 26 24 23 21 17 14 10 7 5 3 4 4 5 6 6 8 8 9 11 14 17 22 28 35 39 40 40 43 43 43 41 42 44 52 60 64 68 69 73 86 92 107 118 118
